# .PCD v0.7 - Point Cloud Data file format
VERSION 0.7
FIELDS x y z
SIZE 4 4 4
TYPE F F F
COUNT 1 1 1
WIDTH 1270
HEIGHT 1
VIEWPOINT 0 0 0 1 0 0 0
POINTS 1270
DATA ascii
-272,5757387 -782,4886136 202,1026265
-260,7861202 -692,6513619 192,3405115
-298,1643766 -700,847579 192,1311894
-242,8492952 -745,2209981 190,9094572
-253,7279112 -715,8126098 193,5355613
-246,8940684 -756,2238073 192,192593
-249,0340704 -696,0609667 191,9496198
-273,3855006 -728,2608237 192,3507743
-267,0232663 -681,5339893 192,8184136
-263,9892339 -695,5738205 192,5009027
-288,8076883 -713,356701 192,2828637
-247,2926489 -748,4417836 191,0095092
-274,4552701 -680,3531084 193,0361101
-287,8948895 -724,0318762 192,1925296
-258,4061056 -719,8451813 192,3453786
-298,4388136 -703,9187919 192,287726
-272,6016809 -758,695741 202,4841662
-244,0304728 -742,2296051 191,081289
-274,5862903 -796,2114993 208,2066068
-290,6027925 -739,1969706 192,2066773
-279,6333248 -719,3755415 192,9510729
-275,2517053 -739,2001747 197,4221992
-286,6230136 -708,8115217 191,9066863
-285,0322225 -694,5450421 192,3870861
-299,0612572 -706,3633909 192,4110642
-283,5391065 -694,8743587 192,0082932
-260,2440521 -784,1038907 204,9438022
-272,5579095 -759,2912436 202,6002105
-258,5677468 -767,930958 202,5170109
-287,7019317 -739,7255349 186,613076
-266,5798639 -794,0409036 208,2574721
-256,3477458 -704,2651031 192,3485814
-265,3729193 -708,05749 189,2839113
-252,5015465 -714,9017451 192,5407388
-256,5124941 -709,4035768 192,8605076
-286,4795531 -707,0056803 192,228495
-261,5339977 -740,5253715 193,794325
-251,2374863 -732,2541632 191,2032321
-286,4022625 -695,7147633 192,2952639
-288,4201747 -739,8127573 191,1372952
-284,3145615 -721,7562487 194,352118
-282,6622131 -682,7046279 192,3792482
-270,1073776 -740,4705976 197,3370747
-267,6267069 -694,5255539 192,3419048
-253,9680508 -701,0449285 192,6009348
-262,4667286 -762,298921 203,0248409
-237,9171038 -747,4571608 199,1447713
-290,3189422 -711,7796027 191,8574286
-258,7288613 -719,5359906 192,3398081
-296,5042956 -701,5094771 192,1022628
-284,9887507 -697,9646816 193,2977922
-271,0663278 -747,8941753 192,725017
-298,027566 -708,2340165 192,4871392
-256,9474121 -710,3203311 193,4115661
-282,0838206 -698,3019273 192,3592816
-249,3933452 -731,9832231 190,9944806
-267,1975925 -772,366733 202,5463932
-247,9653156 -741,2823301 191,6014032
-286,0635232 -689,6059328 192,2517616
-284,887096 -748,0479294 190,9937741
-253,7159803 -713,6765155 192,694856
-286,154789 -697,2402552 192,116929
-249,9683559 -731,0784272 191,1448836
-255,5619997 -710,9319216 192,8497228
-277,2044576 -733,0576885 193,4505339
-259,9677559 -730,053716 193,4763758
-251,6836492 -717,0408065 193,0400817
-273,3481128 -721,9421939 193,1344778
-257,0939529 -715,9707721 192,3276844
-293,6935272 -707,1248759 192,4575651
-258,7166929 -776,7951215 202,2942267
-276,346469 -687,2360829 192,5387712
-268,5561332 -742,2699644 196,4000006
-272,6455957 -784,8231729 203,5115256
-251,607107 -752,5727898 190,6688586
-269,4059726 -682,6386814 192,5959909
-262,8627903 -736,6043368 193,6165549
-294,4884599 -712,5974595 192,210167
-250,6706018 -770,3013203 202,5125378
-265,4718424 -747,1263274 199,3118043
-268,1099576 -701,8225424 188,0387616
-273,5928624 -791,4752657 208,2212821
-254,4266973 -710,9447937 192,4616788
-291,8217789 -727,3132334 192,345304
-258,5115577 -712,907042 191,9401116
-290,0893569 -700,1874732 192,2690273
-264,564698 -724,2174011 192,3827519
-283,7160961 -689,3904767 192,3113463
-273,5521604 -689,7530466 192,1849331
-287,8716755 -742,8782409 192,4381664
-272,4006265 -694,1355935 193,4477731
-270,3741644 -769,9946762 202,5870123
-281,4386469 -708,1253263 193,2363279
-278,4204963 -730,6271042 193,6439451
-259,0484257 -728,5968925 194,1544926
-254,7076032 -734,2936799 191,3951883
-272,8901629 -782,7872939 202,123939
-255,8459882 -776,493617 202,3304729
-264,2377031 -725,732962 192,4182601
-266,3633838 -718,8003013 193,4558951
-279,4642503 -728,1834577 193,467749
-249,6343697 -763,8299472 202,618943
-261,2266 -789,3031434 208,8578051
-290,2633741 -688,8633769 192,5303752
-254,1302597 -708,8417722 192,3506858
-260,3773881 -724,6088717 192,3471149
-254,1455157 -767,9400837 202,4713879
-249,5841335 -712,5824342 192,5729607
-275,0451362 -691,2467933 192,5636932
-292,1275848 -705,0194357 192,2187173
-252,2014334 -715,506547 192,500386
-270,7637558 -779,793322 202,5589855
-237,7193947 -743,5365472 198,833588
-267,1585938 -789,9313253 208,3325115
-284,4120065 -715,8674543 191,7366025
-243,6206542 -759,1621061 202,6210936
-260,514435 -708,7099918 193,330726
-252,249816 -767,0612302 202,4489287
-251,5391402 -706,8171615 192,3593221
-273,1369586 -779,1580753 204,564526
-249,1876698 -755,8482897 192,0751218
-263,2513769 -724,8493709 192,438885
-278,9814571 -709,4310624 193,6265737
-291,8864834 -724,5622555 192,1719707
-261,4039955 -791,1570328 213,1182757
-249,1912275 -703,0023787 192,543875
-267,5418232 -684,216394 192,3846781
-260,9013708 -721,9005924 192,6039615
-266,5887835 -770,8852899 202,4475281
-256,9564939 -727,7269458 193,7320589
-271,1213249 -680,1732061 193,1706191
-262,2481298 -689,5975701 192,6862485
-294,768883 -722,988437 192,4148231
-245,4746023 -762,9665227 202,7743481
-290,0846076 -709,3641621 192,3670074
-259,8555778 -751,9116053 193,3605607
-264,9528297 -730,2500418 193,1313923
-253,283655 -724,1948539 193,203517
-263,5747883 -724,5421288 192,4329244
-303,9937584 -704,0464131 191,8926373
-263,3140143 -732,7061625 194,031569
-271,2955288 -690,1288698 192,0933761
-292,7414887 -692,7413981 192,2324087
-278,166955 -731,8585831 194,2659905
-243,3691512 -751,1693779 192,2232856
-291,0722273 -736,7534018 192,6342039
-278,494528 -730,3184284 193,4629434
-263,953735 -752,4548199 189,5457101
-283,745393 -753,2495624 192,1926703
-277,0883 -793,8814725 208,3219461
-258,7445914 -769,4016962 202,8935455
-279,8499124 -726,9616467 193,3173858
-294,1080916 -710,1641321 192,2973773
-276,2224387 -696,5991328 191,3805226
-298,1109772 -699,0139122 192,2399246
-276,0087617 -749,1491902 199,6314372
-267,4092697 -763,17163 202,674644
-284,2865558 -698,2975184 193,3947373
-291,3806298 -691,8716718 192,2859573
-277,9458556 -712,418767 192,2180586
-272,0705706 -745,7975603 194,2151262
-288,0433952 -694,1328539 192,3248251
-276,7373432 -790,3228088 208,3494091
-285,3920217 -689,0195896 192,2646772
-278,7641732 -744,4699648 190,6528059
-253,6828174 -721,4810597 192,945265
-253,7005961 -701,9489526 192,4784142
-261,1931105 -778,8661728 202,4962637
-295,1042523 -708,9146485 192,2988348
-253,7863102 -761,7496095 202,4664412
-274,3400664 -793,8546848 208,0002865
-260,6845806 -733,6832226 183,4873686
-295,1448121 -705,8452015 192,1834786
-244,8292854 -751,7499913 190,8665056
-239,6660819 -753,0204315 201,3367598
-267,2083842 -773,255966 202,5341763
-297,3836455 -707,0219099 192,4217763
-260,446962 -769,3932621 203,4078236
-251,2341986 -737,6435205 191,3314311
-287,0196602 -750,1643085 192,1985885
-268,2187319 -780,0388438 204,0703364
-262,8431207 -719,146285 192,5482702
-261,3051497 -762,6017178 202,7577872
-264,4595946 -747,4434455 200,2291706
-273,6884945 -741,6185228 197,3073686
-278,7595359 -688,3477352 192,2974881
-299,9636232 -706,6583172 192,6449092
-294,3336539 -707,723184 192,523911
-260,9468861 -792,6311012 212,706754
-274,3846017 -688,5324442 192,537309
-251,2472963 -715,8309799 192,486141
-270,6946403 -770,2917859 202,5934452
-265,5220461 -722,3901739 192,3887884
-268,3176862 -732,6963059 196,8458715
-264,5310299 -745,3222135 197,619509
-273,3059211 -716,964355 189,9920081
-280,0363206 -727,8780943 193,6649482
-271,1135176 -696,9958845 190,2360976
-263,2813073 -706,4025595 191,2189218
-280,9132344 -700,1958573 192,8086561
-278,3140421 -694,8435324 193,4362127
-267,5632677 -687,2532957 192,383118
-284,367267 -747,4326275 186,752787
-272,3025031 -772,0640839 203,3927912
-256,546111 -726,2451017 193,9323866
-296,0763252 -723,596131 192,4767152
-301,182412 -707,2177271 192,1789458
-264,8690196 -709,5644433 188,9371773
-274,866531 -738,0102354 197,5571579
-279,9526596 -726,0419015 193,0603165
-254,6220027 -750,1520715 191,1034637
-247,1834995 -733,5202759 190,9514895
-274,2367582 -739,2175053 197,5238331
-253,7743679 -763,2232211 202,5246295
-245,4941989 -742,5112505 191,4278682
-252,157421 -703,1955514 192,3436745
-254,5416578 -747,4741559 192,0943519
-274,297115 -718,1244005 189,1902491
-275,5182347 -718,408143 189,4160426
-293,2770039 -740,6857051 192,1702895
-266,5138071 -757,5875378 200,8389365
-256,3433223 -745,6658576 192,3611441
-259,498978 -729,4758704 193,8416768
-246,329801 -746,965899 191,0003648
-263,9727068 -746,2415267 199,0191724
-285,6880852 -687,4835434 192,3314689
-262,0330138 -768,5054796 203,4081869
-256,5504291 -695,5310109 192,4772695
-260,8975225 -738,6859545 191,2908358
-260,7771278 -708,711873 193,4864739
-258,24173 -764,9777095 202,4875364
-251,7138272 -773,8202373 203,142626
-289,770702 -720,3475173 192,4164152
-238,3591434 -741,5437803 198,6658875
-264,2488698 -791,6217543 209,2563848
-273,9776813 -753,9111908 199,8809497
-289,5741845 -733,7381033 192,2338458
-253,1706497 -767,0575426 202,5201397
-272,0985709 -784,5292855 203,2768151
-275,8645774 -701,4458511 195,4849172
-250,0779813 -726,9030661 191,6048774
-302,5526389 -708,140861 192,8748255
-251,1078099 -746,921171 191,0439823
-272,9745194 -786,7239783 208,8723141
-288,1479207 -741,9545772 191,7907085
-269,5665059 -729,5119892 191,349781
-275,9353031 -724,8888658 192,4596852
-265,7262725 -708,6863855 190,0247344
-239,7247119 -754,4943139 202,0542055
-274,4714899 -735,617317 197,6906628
-300,973155 -700,7965595 192,6090836
-261,6954931 -686,871873 192,3926997
-250,2804036 -751,0937164 190,7630168
-290,2491943 -758,3524133 177,7556096
-264,5003117 -744,3524681 192,0697629
-258,3488847 -728,8879374 193,4811691
-256,6932621 -767,9352419 202,4387976
-289,8528856 -717,5932247 192,2014052
-256,2950012 -697,9419674 192,3529389
-263,0984625 -754,2720046 191,7204721
-284,5912652 -748,0497434 190,9126638
-270,4815106 -716,3852588 188,8852112
-256,9290481 -750,7365815 192,60572
-289,7812191 -719,7367589 192,3867125
-290,0546422 -696,5140033 192,3100611
-263,040309 -766,4365417 203,2493976
-256,0939297 -750,7370538 191,4558129
-245,8739168 -752,3319906 190,6366872
-294,7576103 -696,6628339 192,2357405
-290,808332 -702,3045146 192,1715845
-258,8688917 -730,5674067 189,7135437
-253,9843258 -729,8394443 192,3420874
-253,0604141 -731,6504595 192,2815032
-277,9956681 -794,7997238 207,7117569
-293,4047373 -693,33376 192,2478255
-289,4388276 -741,0284616 191,8543216
-284,719632 -710,9187162 190,2005181
-288,959815 -714,8647727 191,9500498
-269,6537434 -681,4275307 192,7719502
-250,5444691 -771,4723952 202,8609083
-274,0978779 -752,6370605 183,7824611
-252,6853183 -695,3631102 192,4635773
-249,0047758 -763,5390536 202,6107525
-286,6982781 -712,5016108 192,5435308
-264,0898642 -742,5749099 193,0729163
-266,1913579 -777,0673064 204,2955992
-266,1149827 -779,721083 204,520717
-285,6857793 -695,1348372 192,4132229
-255,4678306 -776,1945972 202,480257
-252,2052436 -711,0011346 192,3894357
-280,5462475 -691,6177479 192,0101601
-267,537629 -734,1571439 194,8120395
-296,1663394 -704,8944248 192,1338709
-273,1821917 -720,4524068 193,5200174
-278,7322386 -710,2433837 179,1522692
-291,1659032 -750,1105979 191,0173627
-272,3082918 -739,5464788 197,4885169
-249,6975528 -718,6033664 192,3651121
-240,0671422 -755,3732277 201,9916549
-255,3370458 -699,1785732 192,3540683
-262,7167684 -771,1678117 203,3366616
-268,7537355 -754,2625841 195,2989601
-266,4574711 -754,6391028 196,1926954
-265,8529242 -733,8899687 194,974341
-297,7787758 -698,4094827 192,2290688
-267,4303732 -763,4690556 202,6279098
-280,8980213 -695,3732267 193,5667078
-256,2348129 -692,8219117 192,3989646
-264,9957944 -753,3492335 190,1900468
-289,1951315 -727,0527116 192,2781744
-279,1634331 -712,6354524 190,8835459
-284,4206268 -742,9324734 193,5625302
-267,6691767 -719,970458 193,4534265
-261,496411 -789,0177782 205,1292948
-262,1341875 -771,7736187 202,4201375
-251,2982151 -765,2968857 202,4257419
-272,2124529 -794,0521334 206,9942283
-263,5724594 -747,6532608 191,2042819
-250,9922766 -766,1813449 202,4172784
-255,3924847 -764,6929048 202,462932
-282,71631 -728,500142 195,8602998
-249,1340204 -739,1631219 190,9982239
-262,1942748 -735,9870879 192,0691996
-264,5278526 -784,6816208 206,1371
-286,3735069 -699,43781 193,1728318
-269,3557377 -736,2948943 197,5344369
-237,1541761 -745,6713581 199,5075571
-260,7883191 -765,5618728 202,4967475
-256,7376407 -709,4101862 193,1074153
-247,0483452 -767,9310017 203,7024945
-274,6880013 -728,539461 192,3644238
-258,6813946 -721,9488164 192,5094196
-294,8082278 -705,2416412 192,1848355
-277,0389669 -741,5297092 194,7282871
-280,7203202 -685,8327101 192,3138857
-280,7796109 -734,8971012 197,4016333
-276,3675943 -684,790035 192,4563147
-269,5484839 -688,3892488 192,3396716
-253,800099 -752,8507825 190,7987938
-273,0774155 -757,2294943 202,0798891
-266,1807734 -707,2262066 191,2954503
-293,7907259 -711,0891025 192,2677145
-290,3126369 -690,0799825 192,4270432
-256,4334729 -718,0941461 192,4120095
-265,4976743 -761,3999372 202,624497
-247,9493277 -705,7393002 192,515415
-260,5435693 -734,7203985 188,823069
-254,7199258 -724,1804764 193,6371638
-258,2469265 -758,4751591 202,3513348
-271,2053092 -697,2830437 190,017858
-261,0511276 -717,666077 192,1451648
-265,1749852 -696,7077964 191,9955672
-264,5645952 -753,3545606 190,4583785
-268,6037622 -709,9623322 192,6188058
-287,4526187 -708,247677 193,0632196
-276,2383825 -696,9016292 191,3469107
-291,9006859 -706,8433579 191,9837617
-253,8667386 -690,2268811 192,6062605
-262,1853973 -735,687085 192,0878697
-263,8582024 -719,1162306 192,4369962
-273,7721361 -713,4001914 191,2245053
-263,1738713 -753,6705471 191,521053
-287,3056219 -716,456066 192,7169738
-245,0438219 -740,123541 190,8744135
-279,4259365 -689,5437523 192,2962406
-254,492509 -721,4459153 192,5129654
-249,5130648 -695,4741464 192,3559399
-260,7003197 -734,004593 184,2826103
-278,4568492 -742,7931156 199,1320257
-247,853892 -757,3755457 201,3626653
-294,3917157 -696,0659215 192,3031964
-276,2756718 -725,7883532 192,4417071
-280,0427293 -684,9437796 192,3431853
-266,5044419 -758,7248555 202,461274
-257,4374116 -720,769152 192,3684717
-301,4773388 -705,6741486 192,2583054
-258,4980865 -755,8121 192,8010229
-250,952698 -714,0342703 192,3777077
-266,1841109 -696,7797304 193,5345649
-276,5210253 -739,7703537 196,730411
-262,5210839 -699,8343945 192,1885918
-284,8663104 -723,2688194 194,6173457
-261,7404653 -757,8662792 202,3786115
-297,1653172 -712,8376653 192,200643
-253,9771803 -783,608781 199,9525102
-246,4862678 -760,024934 202,5373747
-279,676345 -736,9343899 193,0602428
-281,5209623 -691,892101 192,0527862
-270,8475465 -759,5942822 202,8460602
-293,7235895 -692,0983698 192,2741255
-272,9168822 -680,9929062 192,7981914
-279,7532372 -739,7774578 198,3315193
-243,969118 -758,8664749 202,5179052
-278,8046574 -706,4519711 178,1055667
-243,9979402 -758,5718597 202,4324053
-252,584281 -764,4086572 202,3528798
-295,1003375 -706,4647269 192,2889655
-296,8060273 -720,1938583 192,3120973
-275,3324691 -688,1949217 192,6203131
-292,7425427 -693,6616631 192,2374084
-292,5823077 -740,692271 192,2418829
-282,5181858 -701,5830469 191,3760108
-260,7202883 -735,6708305 190,8576241
-281,1040737 -726,0342748 193,4478152
-283,2788066 -726,3277879 194,5157154
-261,3907253 -738,991878 191,6976056
-278,199948 -732,4597666 194,1950515
-262,7019151 -743,7712732 191,7121353
-248,2050881 -705,4380575 192,6653488
-277,9365191 -700,6965154 194,4183865
-287,3573303 -690,4848484 192,3405093
-254,7378894 -722,3486375 192,7283476
-257,7171789 -716,5588856 192,3939441
-256,7768504 -715,3766032 192,3035809
-252,4945658 -703,7833588 192,3137669
-288,2942143 -698,9887713 191,7938025
-276,7478905 -683,237472 192,3136003
-284,8078799 -715,6206804 193,1320681
-263,8572421 -684,0773693 192,6239716
-265,2183976 -693,7250096 192,6476196
-253,1151996 -703,1664242 192,3598039
-245,7041232 -757,9711781 202,0607025
-282,3714529 -709,3148535 193,3675611
-258,7719246 -688,5043936 192,4398981
-297,4467226 -718,3482958 192,3610565
-240,4214434 -755,0619595 201,8840265
-257,090439 -750,4399078 193,0071724
-301,2555637 -709,6228098 191,2781649
-272,603285 -748,1814135 192,9450956
-289,1970257 -733,4219895 191,5715275
-298,7092399 -709,135634 192,4670975
-258,5947815 -699,0644517 192,2768764
-290,4901114 -724,8991285 192,3313856
-260,2102338 -737,3316637 183,9444096
-274,0865091 -752,6337333 183,0067134
-263,4511479 -739,2960216 193,8045227
-266,9588681 -692,7295113 192,3482791
-275,7460442 -720,7031359 193,644514
-274,1846175 -753,8807353 193,1335697
-263,5782464 -747,6770322 193,6138886
-265,4678284 -760,2140226 202,6780207
-293,1910351 -716,9047869 192,1634903
-249,0388961 -730,1997744 191,049176
-254,5689855 -745,977418 191,9929401
-286,670572 -695,1038592 192,4378078
-284,2839829 -719,6035225 193,6307402
-257,6585305 -752,2192149 191,5847548
-259,5014594 -709,0040559 192,6319169
-279,4044584 -728,4927233 193,6140337
-292,2181277 -740,6979752 192,3172674
-274,5788417 -732,1744924 192,6775001
-290,3112401 -738,5913318 192,1112437
-256,936366 -731,8336812 190,5518871
-276,5385572 -723,0329081 191,7688731
-288,7571716 -695,6320267 192,2255911
-271,0811869 -682,5640213 192,5010858
-277,0057509 -732,7510435 193,1379812
-293,5955381 -726,9678728 192,083886
-258,3734698 -687,9255507 192,615394
-285,5459179 -747,7397487 190,9931822
-249,063786 -700,5708497 191,980906
-254,7957155 -738,4834572 191,2514713
-274,0158667 -717,8230232 189,0738805
-257,9276347 -754,6218292 195,0394666
-253,2777883 -756,1430771 193,0344924
-264,1578275 -698,0150065 192,9343316
-276,2738029 -725,1830771 192,4377739
-297,0761454 -708,5603467 192,3711013
-245,1018737 -763,5480265 202,9504828
-249,2954232 -771,160088 203,6444429
-295,1114361 -699,1044315 192,2093521
-274,0696513 -687,9313773 192,4963323
-267,7531757 -738,4105081 197,5256707
-291,5605097 -710,5324368 192,0455051
-261,5972558 -760,5295855 202,7814406
-286,5340439 -703,895455 191,2912
-254,2045826 -758,2066753 202,1301384
-279,2785827 -710,2979603 192,9320871
-260,6875195 -745,2630139 189,4712899
-252,2966448 -693,5787303 192,5961142
-281,7610473 -721,7149097 191,8417017
-275,5409531 -755,4011375 189,103024
-261,0202213 -726,6992921 192,3934198
-291,7912744 -754,6733465 186,5636684
-268,1105687 -699,3911996 192,8397551
-292,1674334 -719,6788842 192,2457948
-264,2361275 -724,5268373 192,3986408
-286,9952208 -721,6356582 192,7196904
-254,6844092 -700,1078932 192,3963077
-245,0779543 -764,7049954 203,0779493
-289,3354836 -706,0280311 192,5242368
-281,9350165 -695,9411601 193,4613618
-262,7677586 -694,6927765 192,289524
-296,4406787 -697,529435 192,2185638
-280,1283991 -720,5929796 193,3496731
-289,5237387 -708,7896438 192,8789697
-286,9997587 -751,0806352 192,2467143
-260,0414966 -710,1677983 192,1102726
-249,9398305 -760,5914236 202,5819557
-290,3794111 -730,3993673 192,6365502
-245,9542807 -740,4092826 190,9991944
-256,6642275 -703,9546367 192,3592808
-289,9971726 -716,0521311 191,8568654
-277,6634241 -699,7344165 193,4891653
-251,8827906 -726,2472514 191,0629034
-283,6795699 -686,9488885 192,3700678
-298,1148245 -716,8032581 192,3522682
-257,2394686 -712,6797987 192,7131954
-254,0952201 -751,0540266 190,8270927
-244,9733068 -738,0349275 191,0145544
-273,3895277 -760,7795839 202,9374062
-247,3898408 -744,5324213 196,6405948
-286,7688543 -683,505321 192,8722275
-249,3647002 -730,1917795 191,0340852
-263,4899688 -748,9245088 197,8608369
-282,9256888 -714,6022491 189,7851734
-246,0087875 -764,7230616 203,0637034
-276,0722676 -720,056748 192,8491944
-290,4196584 -729,4662317 192,5465989
-278,1057295 -746,5878291 189,9039785
-268,8723642 -686,899295 192,3709932
-263,2653654 -685,0000248 192,494925
-272,6822686 -701,7840742 193,6998435
-265,2941408 -740,7921313 194,8733133
-287,3698118 -711,3054601 193,2829171
-264,2817218 -694,6584198 192,5654404
-290,2583989 -708,1496357 192,710118
-247,4356715 -752,9109173 190,7301295
-290,3703379 -699,2640572 192,3752157
-274,9053421 -739,5065026 197,4783752
-291,0335307 -691,2732734 192,3128447
-249,9591467 -711,3651226 192,4010969
-297,8058727 -719,5627162 192,3136342
-280,7247482 -704,8531226 194,1076763
-249,4653849 -749,6114525 191,1907042
-267,8841367 -680,9059033 193,0998156
-254,40466 -761,1564477 202,494417
-270,9348775 -733,2489887 196,7889797
-262,7553508 -700,1955049 193,2366601
-287,9555105 -741,9513492 191,47048
-255,6649822 -742,053593 193,2439254
-261,3663918 -705,385389 193,5672623
-266,006902 -706,6495336 191,7165617
-255,6026027 -693,445995 192,3778833
-260,6531103 -724,0044936 192,4543838
-290,1939443 -723,378354 192,2349638
-260,9608701 -716,1338362 191,5248705
-269,5142316 -730,4224596 191,4907237
-266,7586513 -712,8570881 189,1535712
-278,7671524 -708,9568757 176,6073361
-276,8010823 -689,9412108 192,273633
-245,3056583 -738,0319693 190,9708354
-250,2300174 -698,4455819 192,2408713
-249,0879052 -732,5862109 190,970681
-280,2598617 -735,5128091 197,0961883
-251,6515299 -697,5208164 192,6918601
-260,3993757 -714,6306163 191,2811088
-284,2117146 -748,9648462 191,0429682
-263,6737505 -688,0035307 192,3427386
-283,0546251 -752,007412 191,4768981
-268,6242081 -711,1631713 192,5771912
-299,0514709 -699,3054975 192,3921822
-274,039013 -753,6103933 199,7288623
-252,8739469 -710,6778523 192,3142257
-263,1201594 -757,8557914 202,1203234
-271,8345332 -735,3642854 197,7912221
-283,200531 -696,8232792 193,6008242
-277,4185849 -740,9381311 195,381938
-297,9070562 -710,6658826 192,0221097
-273,5876918 -696,3273599 190,5916383
-270,8149126 -734,1835643 197,8892515
-259,4909444 -702,065343 192,5202945
-246,2219637 -740,7060339 191,1418759
-273,3422693 -719,1208668 190,7279199
-279,0614172 -696,7238922 190,1024179
-286,8994388 -704,5350828 191,9903377
-261,3641371 -742,601889 192,6201891
-270,1200462 -749,4205648 191,057094
-251,1245598 -717,6470494 192,8441627
-294,19119 -714,7418759 192,1447743
-300,586415 -701,1207001 192,7220058
-277,9051049 -680,78534 192,6647897
-293,1347128 -711,71618 192,2486162
-251,1988603 -759,1102924 202,5585053
-262,1642923 -737,4880684 192,1627746
-260,2512705 -721,9163946 192,6156719
-280,1605622 -733,6132064 193,4382224
-281,12594 -723,2722412 192,5811387
-274,5653566 -751,7807963 194,5337452
-260,9856244 -734,8615066 181,9015991
-266,0974818 -709,0983379 192,3397003
-254,6692053 -722,6562293 192,9118199
-276,7649447 -680,1817952 192,2052244
-285,841828 -748,9520296 191,0862629
-269,3924682 -728,9968337 194,1559526
-268,7909336 -744,9263865 194,2897433
-300,8172816 -709,0317842 191,5029779
-256,8601019 -690,3847782 192,4018819
-262,052791 -713,7962387 193,619832
-284,0777223 -692,4303821 192,2722619
-256,1211483 -721,4039301 192,4557505
-252,4704447 -702,5833448 192,3489004
-293,497057 -721,4821938 192,2637266
-268,0715495 -757,8498556 201,7466478
-266,6817162 -691,8238114 192,2165162
-260,8544373 -738,0885178 191,390729
-268,1972115 -702,1546293 193,4755665
-261,4431418 -745,2492884 190,8328007
-247,0849508 -753,5121614 190,8264016
-273,0544742 -763,4444521 203,0178302
-251,4381826 -746,6275774 191,0067108
-258,0835181 -720,1527477 192,3526969
-255,618661 -695,2553793 192,375846
-279,4995031 -701,5704375 194,6185088
-286,063334 -730,7651534 192,6716117
-292,090143 -697,6702071 192,2371375
-256,2445654 -701,8723643 192,5622152
-297,9078589 -710,9724079 192,0219958
-271,40234 -701,8304769 194,4256666
-275,7988078 -748,1371043 191,5285242
-268,6932607 -759,0106376 202,6043503
-257,773608 -751,333368 193,7370339
-250,9496492 -708,6303158 192,2637151
-274,7372102 -756,6128381 201,974064
-277,5902977 -720,0348122 193,1359452
-281,5214768 -710,8040976 192,2824458
-269,5158741 -700,2917899 193,4071214
-262,909631 -756,970496 201,840769
-261,3382791 -743,7589502 190,254765
-294,5027433 -704,3278974 192,1126207
-253,5567475 -691,427572 192,6217894
-240,560988 -753,3580698 200,5698137
-289,490386 -732,8313089 192,4184146
-279,5061808 -714,539083 193,1958301
-258,9141797 -710,4748027 191,6902645
-264,5060115 -684,0520763 192,6295596
-299,3807288 -699,9098423 192,4093878
-290,728439 -751,0662352 191,2573792
-245,9807254 -766,4728224 203,1844079
-262,3485605 -739,2957934 192,5321341
-277,9597195 -715,2064478 193,7589577
-288,0987005 -729,2096791 192,5398227
-284,3567589 -752,9479796 192,2828205
-300,0674284 -712,4738922 192,4505907
-271,8129261 -761,0788219 202,8723895
-293,4499132 -703,1392489 192,220999
-280,2195624 -737,0368305 197,983015
-260,5992416 -742,3198849 192,9265855
-266,1077337 -764,0653546 202,738483
-282,8425536 -729,8635295 190,9402764
-287,4980672 -744,1084651 193,3170197
-251,0779667 -743,979541 195,2126141
-278,1686635 -693,2951824 192,9824121
-269,1675411 -683,8504054 192,3991337
-276,1358158 -691,7953099 192,3152977
-240,3689429 -755,9386558 202,0779169
-273,2015595 -721,3561027 193,4835778
-250,9209985 -711,0377774 192,3926171
-288,1542258 -702,420653 192,9171902
-274,2468137 -752,9999355 197,6623347
-248,4787683 -766,1899448 202,3939635
-265,6206984 -706,3220513 191,0514646
-253,0253181 -701,0725398 192,5426178
-265,4573452 -720,252868 191,7018751
-287,1619873 -705,1486753 192,1577973
-286,3091408 -705,3391742 189,5245479
-269,5563378 -725,3129333 192,109937
-290,2340313 -747,6957494 190,8519905
-267,6839638 -681,81363 192,7969395
-262,2411562 -721,2634236 192,4738155
-271,8157991 -685,2623849 192,3501088
-264,5224748 -762,5882984 202,6815002
-257,7153572 -741,4624645 191,2234654
-272,7960473 -699,6325227 194,1586192
-289,8647844 -725,5172722 192,2494857
-275,2625922 -738,9000268 197,3925183
-287,1405426 -736,6780948 185,5612946
-274,1136238 -753,3103298 199,5447113
-271,6438746 -730,1364136 193,4411753
-276,2552049 -748,4300196 191,2168942
-264,2840382 -700,7117096 192,6652354
-254,3918821 -760,5663947 202,5160293
-279,9298659 -748,0819393 187,1238649
-303,1766774 -711,1208842 191,4987987
-256,7471524 -730,9491537 191,0299015
-247,109077 -760,3144118 202,5607769
-259,4535394 -691,1927161 192,4042419
-281,4841246 -755,0205051 192,1314757
-288,5292136 -723,4127769 192,2514396
-292,1663822 -719,9837736 192,2510054
-254,2066862 -716,9814935 193,1507382
-279,1764264 -736,936658 192,6964407
-253,6192514 -738,509664 191,8044206
-296,6826082 -707,964871 192,5006747
-251,6273004 -765,2964965 202,3909353
-287,0362941 -732,2483874 191,9607582
-263,0364574 -738,1105052 194,0185106
-268,7345165 -726,2500769 192,5457724
-273,1932117 -737,7402195 197,6805896
-269,1343985 -741,9636336 196,5628146
-279,8309226 -712,3230097 190,855167
-282,6948428 -685,1473376 192,3298892
-253,5306846 -724,1979527 193,3956281
-270,1092204 -724,1554464 193,9157945
-257,111814 -688,8765813 192,5549864
-263,1565676 -762,8880874 202,9026866
-287,8397713 -737,6126176 187,823048
-265,717211 -681,5788582 192,8484058
-245,8969928 -749,6474279 190,5140048
-262,6384581 -759,0430438 202,5447545
-270,8483072 -686,8195494 192,3361062
-255,8636248 -759,376653 202,7773332
-280,3430777 -694,4604427 193,3081806
-294,4575468 -726,0560029 192,3923432
-298,9823962 -698,3935925 192,5403858
-250,1561777 -702,3685891 192,5204615
-286,3369517 -751,0879481 192,2598603
-258,0671652 -721,0568256 192,4109808
-291,4601828 -716,0358052 192,3106417
-290,9730808 -712,3729722 191,8842084
-265,3486754 -697,0850519 193,1905934
-278,3601938 -709,2808525 177,5938342
-278,4741883 -739,7284832 195,9563898
-267,0993307 -726,0088017 193,3681163
-265,4153934 -790,1943996 208,7118431
-285,9928479 -722,5984521 193,5238079
-262,6673189 -729,6940426 193,1777224
-254,6481317 -781,4359906 204,6534378
-268,9452075 -692,046476 192,2681352
-259,8006267 -786,7395501 205,3050459
-271,4890625 -746,70368 194,0611327
-266,1092249 -699,7127293 192,1493114
-262,0314681 -703,5556327 193,4922577
-262,0677151 -706,819494 192,6459092
-260,1538271 -770,2802256 203,3607144
-266,3380359 -781,2149594 203,9888661
-287,0525075 -741,6239829 189,7081588
-293,3703447 -708,3562982 192,4446486
-271,4699669 -715,3628436 193,6425634
-266,3472838 -755,7509127 196,4960002
-268,6298146 -715,0478374 191,812297
-288,1534823 -738,5960724 190,9748902
-283,4969375 -757,3899524 184,2648211
-263,8837695 -720,61865 192,3986298
-249,8282886 -702,6824367 192,5466591
-259,1800566 -731,1317592 188,9401228
-272,1693044 -759,8871677 202,7697974
-258,0867657 -781,5148755 202,3604436
-292,5742497 -740,3890996 192,2580158
-286,3193818 -718,3362996 193,4886856
-257,5460504 -760,5493904 202,5623306
-288,5967865 -711,5517309 192,7482742
-248,0207235 -731,7191887 191,2373207
-263,6551417 -788,3565828 210,6435211
-246,8304167 -734,1234835 191,0596262
-273,5736597 -771,4894032 203,4292223
-279,4192358 -738,8603917 198,3529618
-259,9063296 -704,2028734 193,1503683
-287,6689765 -687,1055663 192,3566137
-255,3870611 -772,3441193 203,4157192
-257,2435065 -693,3819603 192,3102125
-279,420563 -693,2063292 192,3522888
-236,6812811 -746,5652991 199,9891822
-276,0341171 -743,3339087 193,2711787
-275,5883478 -696,0612559 192,1097305
-255,4619914 -783,7798529 205,031227
-286,6040166 -711,4471952 189,6646084
-279,4364107 -689,8466447 192,2753393
-272,3175807 -757,8299346 201,5992387
-271,716579 -702,6469386 192,8867061
-252,6495374 -723,3094187 193,1673475
-245,2039072 -752,3267648 190,738445
-259,1389481 -707,25558 193,5147755
-257,6108367 -748,9409229 192,4671708
-259,7168547 -728,8810952 194,0959326
-274,7011407 -699,2731533 194,2948231
-240,1933301 -738,2748349 197,8499572
-257,8609445 -786,6953148 206,1972858
-260,4249614 -791,7912912 211,6510462
-264,5693536 -725,1213642 192,3869761
-291,9894744 -742,5237435 192,1012039
-294,174908 -720,2456652 192,2271048
-286,0346006 -727,125444 192,7062346
-255,3707759 -733,0835747 191,3134409
-253,152911 -737,0284001 192,1534366
-251,1391127 -741,2370736 191,6541937
-264,2050606 -765,2555583 202,7178148
-274,5781414 -717,5151267 189,3019501
-261,5907812 -730,3474584 194,2707368
-269,6653251 -728,0677653 193,4736854
-289,9113988 -737,9773444 191,5017009
-251,2062523 -739,1412701 191,4346897
-254,4951168 -715,7779724 193,2127448
-293,1067039 -702,5382812 192,2380292
-248,8206526 -701,7677212 191,8029233
-268,5806361 -782,0928167 204,7780798
-288,492331 -703,326478 192,9115849
-287,9513716 -698,0834279 191,8098663
-248,8394839 -758,2429815 202,1050055
-250,0059829 -762,9466764 202,4569733
-243,3996708 -740,4553624 191,0102183
-252,8663125 -778,2070549 204,3118437
-299,8548488 -708,475627 192,1490485
-267,5531762 -754,2947914 195,0567307
-250,8780442 -750,4898463 190,8567643
-262,3903609 -699,205116 191,6936048
-285,0327554 -686,8936504 192,3061505
-245,5316717 -747,565935 190,5933688
-249,6538324 -741,8644603 192,2099359
-241,9255837 -700,1789885 191,3792186
-289,70707 -698,060303 192,3595367
-258,3401938 -704,7939682 192,208705
-269,4922433 -783,8688067 204,9196077
-265,3246179 -742,2701724 194,0079712
-269,7428319 -769,9948603 202,5603888
-256,1894531 -728,2979991 192,4163644
-266,8944776 -795,8153324 208,2859368
-274,9972239 -748,4501406 191,8887049
-272,8627891 -759,8846274 202,6518087
-293,769439 -700,3734966 192,2317761
-251,6543665 -692,9888837 192,6293158
-287,1325464 -714,6511653 193,1000975
-272,7280421 -765,2360404 203,0475586
-272,5418162 -769,9818859 203,5613507
-248,6282588 -728,750449 192,076708
-286,2611476 -705,0415932 189,6341144
-253,0004206 -716,7401683 193,7773583
-275,3699833 -689,4060761 192,5465285
-266,131043 -708,4883709 192,2461968
-256,4738803 -752,5281091 191,3385275
-300,3267356 -708,7538851 191,8465878
-266,333806 -693,3543914 192,2932459
-265,2983457 -704,6113647 192,640044
-262,671717 -727,865276 192,3242886
-286,311415 -710,8457799 189,577258
-260,3064375 -737,0405757 184,5214436
-278,0557935 -791,5335476 208,2867731
-243,9625576 -749,0764613 190,5735023
-266,2486557 -712,5484312 188,7946641
-268,7614269 -714,7647533 192,2838358
-283,7522289 -690,911456 192,2426067
-265,0237882 -780,6148637 204,0757001
-249,5319751 -703,8876725 192,5087131
-283,579602 -704,9460478 192,0312805
-273,89587 -698,6122242 193,0635473
-250,83114 -749,8932987 190,9646868
-288,2143173 -742,5706134 192,4092904
-264,8713174 -763,1805176 202,6189887
-280,4143035 -716,311342 192,6238118
-250,5868834 -754,0754548 190,858236
-266,3372851 -726,6057343 192,8523581
-294,1654312 -718,4134508 192,233379
-287,5265057 -729,8203644 192,3366419
-251,0186129 -768,2429568 202,3882086
-283,3522439 -683,8980538 192,3281223
-284,921208 -724,1732368 194,4989602
-268,7424995 -756,3705602 194,5808374
-267,7437275 -765,2473665 202,6699124
-268,5648358 -779,1537045 203,9923938
-249,3973558 -766,4802981 202,4686387
-257,569992 -703,0305779 192,496339
-296,1504998 -703,3632186 192,1589859
-266,4033492 -779,7200462 204,5963889
-268,5028873 -709,3752034 192,8613096
-264,167074 -755,1629943 190,6772663
-282,772271 -743,243518 193,5668521
-278,0718096 -709,463051 187,9280041
-252,3113362 -716,4267593 193,0620087
-257,2812942 -698,810316 192,3247671
-263,8671311 -747,3207445 188,0147373
-250,9634622 -695,1436367 192,7565187
-250,0463565 -767,0672213 202,4327688
-262,0428818 -716,6986808 191,2567483
-245,3131941 -745,1923922 191,1268252
-260,12928 -709,2882782 192,6815616
-280,5892263 -699,5469935 192,0033226
-268,3605183 -700,9176184 188,2215024
-287,4198347 -741,0085082 189,6153615
-290,1129849 -734,3459873 192,5266413
-261,5287855 -685,090646 192,7769568
-298,7774756 -699,6108501 192,2553856
-265,4318494 -682,8099065 192,736353
-260,070976 -780,9169296 202,9512612
-255,226553 -777,671534 202,313006
-251,9921819 -716,733507 193,0652726
-251,2622181 -778,1636256 205,2114394
-271,5982786 -762,8632292 202,6389429
-269,2934587 -729,3074502 194,4027024
-287,1367475 -711,2987901 193,0537327
-274,6474074 -683,6550104 192,6278126
-274,5770612 -751,8000141 197,6336867
-255,6304749 -751,9363318 191,0225796
-263,136849 -746,4338198 188,205346
-254,9709141 -695,2782544 192,3827948
-255,4234425 -767,0533111 202,4268041
-261,2112127 -739,5837269 191,3328965
-253,0014249 -777,040163 203,9435571
-299,7779011 -707,8729879 192,3172856
-265,430254 -758,1402924 201,9424419
-274,0590881 -753,5974798 196,5650109
-251,2823408 -775,8543945 204,2893304
-281,1409345 -726,3332963 193,3646176
-286,537976 -729,8383161 192,3306904
-250,8846493 -726,5718528 191,1646576
-278,9152164 -729,0938444 193,2245926
-257,092044 -729,735841 190,9558823
-296,5961376 -693,2516967 192,5965809
-270,1306139 -773,8562667 202,4542369
-254,9883617 -743,5867703 192,514902
-276,0965312 -735,250249 196,1246593
-249,5549057 -702,3816708 192,4159975
-292,7741126 -704,9985371 192,2573476
-284,4889771 -694,2408769 192,1060473
-262,6042746 -769,0940575 203,5818724
-290,6155615 -754,1085796 182,3067444
-255,5042462 -719,6158022 192,3541317
-294,3378846 -691,4727992 192,3938951
-272,1029398 -770,2866293 203,0750542
-276,0149419 -683,5867125 192,4970092
-285,329801 -684,4368663 192,3623132
-269,0566456 -777,9634319 204,3366977
-256,2990247 -773,2267703 203,5277656
-254,3002962 -746,8774438 191,8779374
-292,17084 -712,3481694 192,1744593
-293,8370357 -712,0001108 192,1699348
-248,6010192 -741,2724788 191,6070571
-283,0819268 -725,0306192 191,8756313
-266,0652008 -741,6833156 195,3634277
-244,949904 -749,9569938 190,5007094
-270,620172 -764,3505621 202,6895436
-261,7113405 -781,2456937 202,0374791
-277,9970803 -702,5212675 194,3156655
-254,1172275 -714,294433 193,3279983
-277,3230418 -706,8699292 178,433833
-273,0978968 -787,3247456 208,5866965
-280,3357146 -705,1350149 193,4822625
-281,0423094 -684,292469 192,3162377
-265,4792369 -702,0589673 190,525278
-271,6259063 -690,115818 192,0864541
-255,6728317 -751,6365333 190,9074563
-271,5347887 -688,3102906 192,2831383
-253,4348848 -703,457276 192,3730487
-285,264635 -714,9863792 192,828499
-274,4192868 -736,5222722 197,82835
-261,5770133 -689,3251071 192,7382375
-263,9734366 -687,3910041 192,3959866
-269,4024909 -693,5286725 191,9721864
-275,3353282 -753,0248819 201,2723808
-263,8562565 -762,88664 202,751508
-262,6597701 -790,341755 212,3377186
-267,3977745 -713,4065612 188,3835672
-257,7283592 -714,7526924 192,3305089
-288,6700921 -702,3802853 192,4930163
-258,1850587 -690,0259771 192,3148175
-283,5288531 -698,284774 192,8420486
-274,3931874 -756,9099578 202,0385816
-274,9751319 -714,8846729 191,4860524
-254,9515154 -759,6769709 202,6866856
-264,3008616 -716,1511365 193,7067846
-269,3620059 -699,0055894 192,1640981
-292,7362593 -693,9701598 192,2541517
-269,9959127 -693,8776257 192,9272152
-258,3846258 -706,0398061 192,9437373
-266,1494418 -724,4889178 192,4769753
-298,187795 -711,5840329 192,1494535
-264,8128733 -697,0286199 192,0919215
-258,854691 -695,4416124 192,3667469
-279,2340738 -696,4390848 190,4757844
-279,5096384 -725,4256082 192,5440555
-251,3941902 -700,5302969 192,5969805
-254,1424023 -782,6233424 204,3432394
-255,0299666 -784,0876464 204,5237861
-292,390554 -708,0751033 192,3967856
-248,4493656 -752,305408 190,5648196
-254,9585128 -753,737928 191,1354499
-274,0635924 -686,1041227 192,4855334
-269,0775227 -728,3274711 191,735739
-255,2867872 -696,4769237 192,4285368
-244,1287715 -744,9060822 190,8826619
-249,6485974 -717,07125 192,5079877
-250,0387242 -700,8365939 191,9515679
-261,5175415 -789,1467207 208,1126757
-283,5209953 -722,0018324 192,3583199
-269,2797162 -741,669153 196,9958812
-251,8000436 -734,0475164 191,4487449
-264,3118095 -687,9820573 192,3744033
-286,7222182 -702,7813958 193,1607872
-259,6477771 -777,0913584 202,355511
-258,4987121 -690,0153739 192,3401996
-272,942865 -716,7125396 190,8620734
-269,7488965 -721,6917977 192,3697263
-279,0761944 -717,9957916 188,7691374
-251,8931336 -777,3163601 204,3668161
-283,4092234 -726,0124653 194,2060861
-255,8825457 -729,7775171 191,5869475
-268,4954004 -774,1481725 202,533657
-260,228601 -739,5137245 187,2422204
-290,078972 -733,4365019 192,595027
-248,6612491 -700,5954213 192,1994448
-255,6662016 -771,4723252 202,694313
-285,0105391 -746,7969515 188,3469964
-297,5667522 -710,6745201 192,0347484
-278,5365659 -701,9993006 196,1344226
-260,5998044 -687,5442158 192,7124844
-259,3881964 -728,5878863 194,1091215
-267,767789 -713,4281705 189,080402
-279,889111 -705,5559907 189,8455731
-270,4495641 -746,6983891 192,6348771
-299,7646076 -712,7860932 192,38093
-261,2137464 -683,8909885 192,7208254
-263,0605548 -766,1409101 203,1950194
-247,4843802 -732,6008474 191,0048748
-280,2372007 -703,0610978 194,4547295
-301,084994 -706,6162675 192,3911202
-248,9368111 -708,1024257 192,4868582
-269,1401794 -730,2694245 196,3809836
-249,612009 -713,4782377 192,5200475
-271,5385345 -699,9669901 194,0432284
-270,155753 -724,6996373 192,2232651
-267,8671488 -770,2911553 202,4440784
-252,2944679 -771,7738904 202,4229117
-251,2528332 -728,0603552 191,0746355
-248,9514546 -708,3995652 192,4558823
-263,9521906 -698,9636115 193,4667932
-292,0920508 -752,2278083 187,3715425
-258,3367054 -724,6613745 192,6151999
-273,9682534 -691,8530284 191,9998738
-299,0374276 -707,9008814 192,4738248
-299,1142799 -710,3448766 192,3183452
-296,4198755 -694,7688134 192,2475761
-258,3814883 -742,6508643 192,8525076
-289,1066061 -735,543161 191,0383451
-270,2105501 -721,126139 193,6197369
-254,7042738 -760,5650738 202,5267499
-247,4697818 -763,2523425 202,5019615
-251,5098956 -759,1086801 202,5705844
-259,1825336 -760,5418991 202,4443086
-292,1354222 -716,0189335 192,2873472
-267,1298939 -755,7472116 196,1577184
-261,8479496 -701,4240385 193,0965459
-289,9737512 -712,0928814 191,8865014
-259,8512665 -697,517787 192,3414587
-279,9957199 -714,8115118 192,8175416
-266,6181459 -718,1967879 193,6228697
-265,6999775 -768,2106575 203,0127716
-263,4990035 -779,7655551 202,3205844
-284,1256118 -731,7486218 194,129157
-270,9491158 -761,6767042 202,6359866
-286,7607391 -727,1073572 192,5541292
-249,9106518 -774,0914341 203,7539888
-300,0141804 -701,4313742 192,5023073
-249,021489 -763,2447014 202,5623833
-287,5080145 -700,6049815 192,8600052
-252,7036375 -779,797851 203,0881086
-251,5719563 -760,877217 202,4483888
-265,9411437 -728,1252007 193,0541938
-276,8919709 -744,5107429 192,0040797
-254,0919343 -706,1413282 192,3917165
-259,9309759 -772,9554503 202,373299
-296,6927572 -722,6497551 192,5884524
-265,8459405 -782,7218182 202,8795452
-252,2494557 -774,4033931 203,3980031
-264,2324258 -697,3406875 191,9234227
-269,39061 -704,5282064 193,0108139
-262,5215737 -775,6212165 202,3107287
-260,3156217 -741,7387449 193,6429078
-291,5663018 -723,6517734 192,1361092
-283,6634399 -752,6088853 192,3733265
-289,8845176 -716,9795327 192,1229774
-255,5515577 -777,9675734 202,2968196
-237,6643621 -743,2856405 198,9249472
-275,3998791 -788,5587247 207,6938997
-265,1549967 -760,8079362 202,6710722
-294,0683759 -709,5579246 192,3831581
-243,4959551 -701,9293944 191,4863238
-268,9628917 -732,385193 196,8454685
-258,6363312 -723,7549577 192,655372
-246,2488557 -742,8066824 191,9672742
-262,4096089 -784,7358717 204,3019141
-249,5087768 -728,1180015 191,4360322
-277,2021435 -718,0620318 189,3138055
-276,768104 -787,6249167 209,7469757
-287,306516 -710,0534416 192,6448958
-250,2922073 -699,0346371 192,0905963
-274,3764172 -730,961487 192,3620515
-298,8859503 -697,4816208 192,7486649
-275,9122024 -712,5123364 193,1589581
-244,2981718 -733,7140202 195,198242
-284,1009653 -751,0886786 191,3259875
-260,5399818 -790,9271679 211,3523869
-261,7578533 -757,2655548 202,3284023
-263,4521749 -745,8459316 190,6670638
-245,1979325 -742,2166876 191,362438
-244,889753 -761,2088894 202,6272661
-276,2370723 -697,2068855 191,3556306
-284,8473905 -718,6904276 193,8468134
-253,8323591 -745,0936673 192,2253259
-288,1874612 -731,6318061 192,3522385
-251,6611999 -697,8203562 192,673062
-284,7934815 -719,6066891 193,9812863
-258,6253325 -781,8059766 202,6069587
-263,860888 -732,7042495 194,2815794
-284,6554689 -713,0258588 189,59265
-265,6243548 -793,4485482 208,2516226
-268,1957843 -721,4175177 192,1824919
-276,3400867 -687,5424834 192,5587694
-274,2591187 -739,8156517 197,4762782
-252,3236471 -694,7791977 192,5521353
-267,5274393 -769,4033806 202,4785509
-256,5072659 -690,1000587 192,4723568
-251,6071379 -762,6449938 202,3932116
-287,8176031 -725,5599603 192,3850281
-284,8542788 -722,967716 194,6427834
-252,100783 -737,352146 192,397582
-293,0570284 -692,4266831 192,272059
-258,9345265 -785,3201636 203,4796763
-276,4117596 -689,3573009 192,4115038
-258,1983161 -769,1102243 202,6669664
-262,4054975 -737,1880629 192,3561501
-270,1991432 -758,1132042 202,0558846
-292,7297467 -696,4256374 192,2885851
-237,5209397 -748,6412357 200,2570608
-282,6694132 -718,1197418 193,5374996
-265,5180482 -741,6754522 194,3247677
-279,2248072 -693,5505025 192,8225499
-267,5807922 -688,1631589 192,3557767
-275,5352889 -756,3479383 188,3567358
-262,891979 -737,5204581 194,3685367
-252,3836368 -698,3831618 192,4781233
-266,3661096 -721,4450785 191,8823319
-268,3192395 -705,7772451 193,2573706
-260,3186024 -727,0203697 192,5419454
-255,9722655 -711,8507261 193,4659774
-265,0242194 -697,3991325 193,1934972
-269,2465949 -767,6156487 202,9456533
-274,1527661 -752,6394659 180,4220094
-254,2216135 -778,5287235 203,2758367
-248,2953503 -710,8381586 192,5429228
-286,3849008 -688,9837454 192,2700304
-282,5331527 -692,1595909 192,0092645
-265,5959199 -752,7365057 188,6812775
-251,8858709 -726,5467001 191,0597101
-279,1138226 -703,6845978 194,0195834
-258,0642023 -781,8086299 202,4216665
-282,9033206 -728,7135463 193,1067822
-245,2757665 -744,8955787 191,2204516
-284,1165109 -721,9916334 192,503316
-273,8170898 -786,1330888 209,1419919
-248,7410949 -738,2758614 191,1696256
-271,2060099 -767,9124407 202,8749437
-257,467797 -754,0272158 194,568486
-240,8823379 -737,3784134 197,6564267
-257,2615515 -756,1584392 192,6589039
-246,6734362 -765,3088362 202,9811522
-259,2728411 -686,086631 192,7603105
-283,2494355 -730,2890585 195,3987974
-295,4711536 -709,2072239 192,2261238
-260,4715675 -769,9847861 203,3565643
-262,1059406 -750,9789893 191,728277
-275,1618316 -736,5052344 197,6046937
-259,6571712 -754,0058558 193,8922667
-249,6360705 -761,1823113 202,5622959
-288,4127232 -733,7274536 191,0915907
-274,722441 -717,2345571 189,7369334
-258,5021448 -708,1767439 193,51246
-287,3236505 -691,4103201 192,4277236
-240,2571384 -753,9036153 201,4376913
-299,1332912 -711,8748885 192,2855854
-263,0617179 -734,7897027 193,0902193
-244,9617311 -749,658082 190,4631178
-277,3672684 -733,9494063 193,0686959
-260,5089844 -733,4957298 188,0662226
-290,3206056 -712,0841666 191,8563972
-248,4197599 -751,1125243 190,6187471
-292,4312005 -697,9637236 192,221355
-267,5722181 -687,8601919 192,3717276
-259,3092644 -725,8497515 192,6169277
-290,8382909 -719,7074906 192,245593
-287,3025327 -703,6917697 193,3635738
-276,3331332 -730,6244872 192,369586
-258,4817308 -770,5725477 203,5750356
-271,9922809 -699,6273204 193,7284609
-237,6537216 -745,9371568 199,0371566
-263,6739391 -689,5217205 192,3704344
-253,4845019 -722,7052263 193,4840628
-266,8865062 -740,5123187 197,3091365
-270,5453155 -716,678323 188,7324077
-250,0109641 -729,878555 191,0101981
-244,1714988 -750,5628239 190,9000728
-250,6267517 -709,2412755 192,2827566
-254,3790101 -728,3275942 192,1203051
-286,7079134 -714,3674602 193,3137456
-279,3008705 -737,9157199 196,2947211
-268,1665254 -683,283885 192,4388572
-262,0205179 -686,5568779 192,3855042
-275,4663711 -754,2426719 200,9636364
-298,7423903 -709,7452316 192,3974156
-258,3604625 -775,021048 202,3633917
-295,4961911 -701,5398896 192,1129034
-252,8705714 -764,1130122 202,4232538
-245,5195247 -751,1451819 190,7109327
-265,8373147 -769,103406 202,6924821
-273,8888887 -716,6970628 191,7364473
-282,3833663 -729,4133232 195,8817332
-274,6630846 -753,3174839 201,3445311
-288,2049198 -702,1071998 192,7970605
-260,1879721 -770,5771789 203,279613
-282,1927051 -730,6381184 196,3432754
-264,2543832 -684,95834 192,462938
-260,0894226 -737,3228286 183,4217031
-272,3922688 -761,0763517 203,0282281
-290,3959632 -696,808739 192,2938483
-258,5548119 -741,1548768 189,0356817
-260,1573427 -711,0540251 191,8339239
-282,6876128 -701,247935 190,9727475
-279,468354 -720,9102229 193,3608722
-257,7807908 -718,6555662 192,2727867
-262,3776498 -755,1841243 201,5501959
-261,2166675 -729,1338738 193,5683759
-264,2544988 -696,1286171 191,8532268
-269,9874143 -737,4854902 197,5952595
-289,0898416 -738,8921645 191,1124317
-272,6123316 -724,0797956 193,3681945
-246,7054359 -755,9105489 191,8916924
-269,1926785 -741,3753487 197,2055093
-267,3878889 -727,2102408 193,477961
-274,625494 -784,1997987 204,9137417
-251,3466375 -698,4327702 192,6711084
-247,9611502 -769,6923183 203,8166249
-273,0395434 -753,5840116 185,5830563
-274,404516 -752,3938019 196,4946085
-265,2005063 -724,5065521 192,4178956
-272,737542 -784,534023 203,2872556
-273,468826 -748,4689515 192,4277491
-284,0538173 -703,6471082 190,9029971
-267,1862281 -702,5013279 188,7205716
-252,9920504 -730,7360886 191,6086676
-263,2006224 -720,6394737 192,4906783
-284,827425 -748,960706 191,1452351
-247,408014 -760,0184135 202,5958641
-272,1443864 -761,969095 202,868382
-248,7808102 -716,1943305 192,2357454
-261,7672199 -692,9170327 192,3269881
-264,2468524 -740,2123686 195,0658011
-245,4502789 -763,5539717 202,8515355
-254,4876195 -770,0034478 202,4432886
-270,0138974 -725,3731248 194,1703254
-296,8558646 -711,6165689 192,1353259
-262,9679003 -773,2472703 202,7455604
-271,1906426 -716,1637536 191,140332
-279,5038461 -717,4332043 190,1073102
-274,5258446 -722,2012265 192,6610395
-263,0095373 -749,1647664 191,8275154
-273,7291626 -730,0663564 192,3358363
-269,652541 -710,5840407 194,0655136
-258,0505451 -715,3455819 192,3430942
-298,0914079 -697,7894092 192,2772598
-244,6138189 -758,8619342 202,4734959
-286,673186 -748,3418251 191,4497802
-251,2880045 -697,2405737 192,7963359
-266,1481586 -761,3973481 202,5990163
-263,5494406 -711,5402348 191,4563538
-249,7285176 -752,2925683 190,5589258
-289,5926767 -686,7435329 192,5243376
-285,3978844 -702,0282653 190,0589192
-298,4290011 -699,008019 192,2797059
-296,5073653 -712,8527509 192,1767736
-259,1847663 -696,9401606 192,3796644
-237,8095715 -743,8549876 198,55617
-270,5488258 -719,9115086 193,5754971
