# .PCD v0.7 - Point Cloud Data file format
VERSION 0.7
FIELDS x y z rgb label
SIZE 4 4 4 4 4
TYPE F F F F U
COUNT 1 1 1 1 1
WIDTH 790
HEIGHT 1
VIEWPOINT 0 0 0 1 0 0 0
POINTS 790
DATA ascii
1.123209 0.031442 -3.634171 1.438684266573925e-38 808464432
0.989396 0.041544 -3.201214 1.575705472493148e-39 808464432
0.854698 0.047851 -2.765397 1.575705472493148e-39 808464432
0.855607 0.059878 -2.768338 1.575705472493148e-39 808464432
0.852821 0.071619 -2.759325 1.575705472493148e-39 808464432
0.855700 0.083838 -2.768640 1.575705472493148e-39 808464432
0.853582 0.095578 -2.761786 1.575705472493148e-39 808464432
0.854199 0.107603 -2.763782 1.575705472493148e-39 808464432
0.855224 0.119702 -2.767097 1.575705472493148e-39 808464432
0.856814 0.131917 -2.772242 1.575705472493148e-39 808464432
0.854109 0.143455 -2.763489 1.575705472493148e-39 808464432
0.854195 0.155425 -2.763768 1.575705472493148e-39 808464432
0.855423 0.167622 -2.767743 1.575705472493148e-39 808464432
0.854904 0.179486 -2.766064 1.575705472493148e-39 808464432
0.853273 0.191086 -2.760785 1.575705472493148e-39 808464432
0.855299 0.203511 -2.767341 1.575705472493148e-39 808464432
0.854324 0.215237 -2.764188 1.575705472493148e-39 808464432
0.854449 0.227228 -2.764592 1.575705472493148e-39 808464432
0.853762 0.238995 -2.762367 1.575705472493148e-39 808464432
0.859310 0.252575 -2.780318 1.575705472493148e-39 808464432
0.855731 0.263501 -2.768739 1.575705472493148e-39 808464432
0.857215 0.275956 -2.773540 1.575705472493148e-39 808464432
0.854694 0.287107 -2.765384 1.575705472493148e-39 808464432
0.854130 0.298873 -2.763561 1.575705472493148e-39 808464432
0.855426 0.311299 -2.767752 1.575705472493148e-39 808464432
1.048369 0.396187 -3.392023 1.678859116217644e-38 808464432
1.046827 0.410256 -3.387034 1.678859116217644e-38 808464432
1.048343 0.425523 -3.391940 1.678859116217644e-38 808464432
1.045687 0.439081 -3.383348 1.678859116217644e-38 808464432
1.046729 0.454170 -3.386719 1.678859116217644e-38 808464432
1.047598 0.469209 -3.389531 1.678859116217644e-38 808464432
1.047668 0.483904 -3.389755 1.678859116217644e-38 808464432
1.045276 0.497430 -3.382018 1.678859116217644e-38 808464432
1.048943 0.513857 -3.393883 1.678859116217644e-38 808464432
1.044616 0.526358 -3.379882 1.678859116217644e-38 808464432
1.047563 0.542505 -3.389417 1.678859116217644e-38 808464432
1.122819 0.597194 -3.632909 1.438684266573925e-38 808464432
1.121062 0.611950 -3.627225 1.438684266573925e-38 808464432
1.121504 0.627889 -3.628654 1.438684266573925e-38 808464432
1.121264 0.643448 -3.627878 1.438684266573925e-38 808464432
1.122196 0.659690 -3.630893 1.438684266573925e-38 808464432
1.123021 0.675894 -3.633563 1.438684266573925e-38 808464432
1.122726 0.691430 -3.632608 1.438684266573925e-38 808464432
1.121734 0.706520 -3.629398 1.438684266573925e-38 808464432
1.121629 0.722152 -3.629057 1.438684266573925e-38 808464432
1.121900 0.738030 -3.629936 1.438684266573925e-38 808464432
1.122341 0.754029 -3.631361 1.438684266573925e-38 808464432
1.212975 0.831898 -3.924612 1.392838965625535e-38 808464432
1.212446 0.848505 -3.922901 1.392838965625535e-38 808464432
1.215119 0.867383 -3.931549 1.392838965625535e-38 808464432
1.213175 0.882976 -3.925258 1.392838965625535e-38 808464432
1.212481 0.899441 -3.923013 1.392838965625535e-38 808464432
1.213820 0.917424 -3.927346 1.392838965625535e-38 808464432
1.212207 0.933171 -3.922125 1.392838965625535e-38 808464432
1.211390 0.949497 -3.919481 1.392838965625535e-38 808464432
1.213946 0.968492 -3.927752 1.392838965625535e-38 808464432
1.212049 0.983943 -3.921615 1.392838965625535e-38 808464432
1.212688 1.001436 -3.923684 1.392838965625535e-38 808464432
1.200019 1.007769 -3.882689 2.019804281157737e-38 808464432
1.189958 1.015976 -3.850139 2.019804281157737e-38 808464432
1.200920 1.042144 -3.885607 2.019804281157737e-38 808464432
1.199932 1.058082 -3.882411 2.019804281157737e-38 808464432
1.199624 1.074601 -3.881414 2.019804281157737e-38 808464432
1.214337 1.104777 -3.929018 1.392838965625535e-38 808464432
1.226319 1.132842 -3.967787 1.392838965625535e-38 808464432
1.213047 1.137560 -3.924843 1.392838965625535e-38 808464432
1.211733 1.153288 -3.920591 1.392838965625535e-38 808464432
1.206857 1.165539 -3.904816 2.019804281157737e-38 808464432
1.202684 1.178342 -3.891314 2.019804281157737e-38 808464432
1.199300 1.191813 -3.880365 2.019804281157737e-38 808464432
1.338457 -1.329286 -4.267847 1.880790849211783e-38 808464432
1.339408 -1.311756 -4.270881 1.880790849211783e-38 808464432
1.338400 -1.292308 -4.267668 1.880790849211783e-38 808464432
1.341294 -1.276600 -4.276894 1.880790849211783e-38 808464432
1.338223 -1.255218 -4.267103 1.880790849211783e-38 808464432
1.340315 -1.238692 -4.273772 1.880790849211783e-38 808464432
1.340544 -1.220413 -4.274502 1.880790849211783e-38 808464432
1.340386 -1.201780 -4.274000 1.880790849211783e-38 808464432
1.340154 -1.183087 -4.273261 1.880790849211783e-38 808464432
1.339147 -1.163726 -4.270049 1.880790849211783e-38 808464432
1.335797 -1.142389 -4.259367 1.880790849211783e-38 808464432
1.340494 -1.127916 -4.274345 1.880790849211783e-38 808464432
1.338453 -1.107735 -4.267834 1.880790849211783e-38 808464432
1.338719 -1.089490 -4.268685 1.880790849211783e-38 808464432
1.339071 -1.071306 -4.269808 1.880790849211783e-38 808464432
1.340250 -1.053762 -4.273565 1.880790849211783e-38 808464432
1.340011 -1.035090 -4.272804 1.880790849211783e-38 808464432
1.339987 -1.016588 -4.272728 1.880790849211783e-38 808464432
1.338875 -0.997277 -4.269183 1.880790849211783e-38 808464432
1.338853 -0.978792 -4.269111 1.880790849211783e-38 808464432
1.338539 -0.960100 -4.268111 1.880790849211783e-38 808464432
1.339149 -0.942065 -4.270055 1.880790849211783e-38 808464432
1.339323 -0.923713 -4.270609 1.880790849211783e-38 808464432
1.340460 -0.906007 -4.274234 1.880790849211783e-38 808464432
1.341584 -0.888261 -4.277820 1.880790849211783e-38 808464432
1.338576 -0.867806 -4.268229 1.880790849211783e-38 808464432
1.339797 -0.850117 -4.272122 1.880790849211783e-38 808464432
1.339380 -0.831377 -4.270790 1.880790849211783e-38 808464432
1.337290 -0.811634 -4.264128 1.880790849211783e-38 808464432
1.339460 -0.794475 -4.271048 1.880790849211783e-38 808464432
1.340509 -0.776606 -4.274391 1.880790849211783e-38 808464432
1.339679 -0.757646 -4.271744 1.880790849211783e-38 808464432
1.229071 -0.678139 -3.919057 1.392838965625535e-38 808464432
1.228681 -0.660976 -3.917814 1.392838965625535e-38 808464432
1.229597 -0.644508 -3.920734 1.392838965625535e-38 808464432
1.231237 -0.628384 -3.925962 1.392838965625535e-38 808464432
1.229998 -0.610785 -3.922012 1.392838965625535e-38 808464432
1.231564 -0.594575 -3.927007 1.392838965625535e-38 808464432
1.228679 -0.576234 -3.917808 1.392838965625535e-38 808464432
1.230872 -0.560284 -3.924798 1.392838965625535e-38 808464432
1.230856 -0.543299 -3.924749 1.392838965625535e-38 808464432
1.229158 -0.525595 -3.919333 1.392838965625535e-38 808464432
1.230129 -0.509042 -3.922431 1.392838965625535e-38 808464432
1.227736 -0.491117 -3.914798 1.392838965625535e-38 808464432
1.228994 -0.474668 -3.918812 1.392838965625535e-38 808464432
1.228860 -0.457665 -3.918384 1.392838965625535e-38 808464432
1.229759 -0.441037 -3.921251 1.392838965625535e-38 808464432
1.229187 -0.423877 -3.919426 1.392838965625535e-38 808464432
1.229783 -0.407119 -3.921328 1.392838965625535e-38 808464432
1.228696 -0.389811 -3.917862 1.392838965625535e-38 808464432
1.230112 -0.373292 -3.922376 1.392838965625535e-38 808464432
1.231323 -0.356675 -3.926238 1.392838965625535e-38 808464432
1.229714 -0.339247 -3.921108 1.392838965625535e-38 808464432
1.229449 -0.322215 -3.920261 1.392838965625535e-38 808464432
1.229757 -0.305333 -3.921244 1.392838965625535e-38 808464432
1.230073 -0.288444 -3.922250 1.392838965625535e-38 808464432
1.229801 -0.271417 -3.921385 1.392838965625535e-38 808464432
1.228103 -0.254102 -3.915970 1.392838965625535e-38 808464432
1.227252 -0.236997 -3.913257 1.392838965625535e-38 808464432
1.230252 -0.220607 -3.922822 1.392838965625535e-38 808464432
1.228264 -0.203308 -3.916483 1.392838965625535e-38 808464432
1.229131 -0.186497 -3.919248 1.392838965625535e-38 808464432
1.140004 -0.157249 -3.635055 1.438684266573925e-38 808464432
1.136518 -0.141091 -3.623938 1.438684266573925e-38 808464432
1.136122 -0.125371 -3.622678 1.438684266573925e-38 808464432
1.135233 -0.109614 -3.619841 1.438684266573925e-38 808464432
1.138970 -0.094264 -3.631756 1.438684266573925e-38 808464432
1.139549 -0.078593 -3.633605 1.438684266573925e-38 808464432
1.139070 -0.062848 -3.632077 1.438684266573925e-38 808464432
1.139886 -0.047170 -3.634678 1.438684266573925e-38 808464432
1.138445 -0.031407 -3.630084 1.438684266573925e-38 808464432
1.137380 -0.015689 -3.626687 1.438684266573925e-38 808464432
1.136960 0.000000 -3.625347 1.438684266573925e-38 808464432
1.139313 0.015715 -3.632851 1.438684266573925e-38 808464432
1.140374 0.031460 -3.636235 1.438684266573925e-38 808464432
1.003983 0.041546 -3.201332 1.575705472493148e-39 808464432
0.867768 0.047879 -2.766993 1.575705472493148e-39 808464432
0.868219 0.059880 -2.768432 1.575705472493148e-39 808464432
0.867792 0.071821 -2.767071 1.575705472493148e-39 808464432
0.867017 0.083716 -2.764598 1.575705472493148e-39 808464432
0.867156 0.095691 -2.765042 1.575705472493148e-39 808464432
0.866475 0.107567 -2.762871 1.575705472493148e-39 808464432
0.867244 0.119625 -2.765322 1.575705472493148e-39 808464432
0.867653 0.131650 -2.766628 1.575705472493148e-39 808464432
0.867043 0.143517 -2.764681 1.575705472493148e-39 808464432
0.867578 0.155573 -2.766388 1.575705472493148e-39 808464432
0.867786 0.167580 -2.767051 1.575705472493148e-39 808464432
0.866500 0.179284 -2.762951 1.575705472493148e-39 808464432
0.868041 0.191576 -2.767864 1.575705472493148e-39 808464432
0.870215 0.204060 -2.774798 1.575705472493148e-39 808464432
0.868975 0.215755 -2.770844 1.575705472493148e-39 808464432
0.867075 0.227244 -2.764783 1.575705472493148e-39 808464432
0.865502 0.238770 -2.759767 1.575705472493148e-39 808464432
0.867357 0.251246 -2.765685 1.575705472493148e-39 808464432
0.868362 0.263515 -2.768889 1.575705472493148e-39 808464432
0.866651 0.274950 -2.763433 1.575705472493148e-39 808464432
0.864789 0.286288 -2.757495 1.575705472493148e-39 808464432
0.869438 0.299820 -2.772318 1.575705472493148e-39 808464432
0.867396 0.311080 -2.765807 1.575705472493148e-39 808464432
1.063055 0.395914 -3.389692 1.678859116217644e-38 808464432
1.063008 0.410560 -3.389543 1.678859116217644e-38 808464432
1.064471 0.425808 -3.394208 1.678859116217644e-38 808464432
1.064378 0.440452 -3.393912 1.678859116217644e-38 808464432
1.061616 0.453953 -3.385103 1.678859116217644e-38 808464432
1.063868 0.469591 -3.392283 1.678859116217644e-38 808464432
1.062900 0.483825 -3.389197 1.678859116217644e-38 808464432
1.063615 0.498821 -3.391478 1.678859116217644e-38 808464432
1.062888 0.513142 -3.389160 1.678859116217644e-38 808464432
1.063685 0.528199 -3.391702 1.678859116217644e-38 808464432
1.063267 0.542657 -3.390368 1.678859116217644e-38 808464432
1.138763 0.596896 -3.631097 1.438684266573925e-38 808464432
1.137395 0.611868 -3.626735 1.438684266573925e-38 808464432
1.139540 0.628740 -3.633575 1.438684266573925e-38 808464432
1.138170 0.643684 -3.629206 1.438684266573925e-38 808464432
1.140030 0.660461 -3.635137 1.438684266573925e-38 808464432
1.139086 0.675626 -3.632126 1.438684266573925e-38 808464432
1.138150 0.690771 -3.629144 1.438684266573925e-38 808464432
1.139787 0.707486 -3.634362 1.438684266573925e-38 808464432
1.139707 0.723158 -3.634109 1.438684266573925e-38 808464432
1.138130 0.737856 -3.629080 1.438684266573925e-38 808464432
1.140294 0.754988 -3.635980 1.438684266573925e-38 808464432
1.229574 0.831061 -3.920662 1.392838965625535e-38 808464432
1.231406 0.849284 -3.926501 1.392838965625535e-38 808464432
1.230447 0.865595 -3.923443 1.392838965625535e-38 808464432
1.229032 0.881553 -3.918932 1.392838965625535e-38 808464432
1.228386 0.898034 -3.916873 1.392838965625535e-38 808464432
1.229091 0.915503 -3.919120 1.392838965625535e-38 808464432
1.230580 0.933586 -3.923868 1.392838965625535e-38 808464432
1.230089 0.950181 -3.922302 1.392838965625535e-38 808464432
1.231157 0.967988 -3.925708 1.392838965625535e-38 808464432
1.229716 0.983818 -3.921114 1.392838965625535e-38 808464432
1.229421 1.000540 -3.920172 1.392838965625535e-38 808464432
1.218346 1.008332 -3.884857 2.019804281157737e-38 808464432
1.203821 1.012916 -3.838543 2.019804281157737e-38 808464432
1.202168 1.028108 -3.833273 2.019804281157737e-38 808464432
1.216247 1.056925 -3.878166 2.019804281157737e-38 808464432
1.216698 1.074100 -3.879605 2.019804281157737e-38 808464432
1.216281 1.090508 -3.878273 2.019804281157737e-38 808464432
1.228713 1.118604 -3.917916 1.392838965625535e-38 808464432
1.230388 1.137100 -3.923257 1.392838965625535e-38 808464432
1.227911 1.151748 -3.915358 1.392838965625535e-38 808464432
1.216031 1.157379 -3.877478 2.019804281157737e-38 808464432
1.217890 1.175947 -3.883404 2.019804281157737e-38 808464432
1.214493 1.189419 -3.872571 2.019804281157737e-38 808464432
1.357203 -1.328648 -4.265799 1.880790849211783e-38 808464432
1.360123 -1.313014 -4.274979 1.880790849211783e-38 808464432
1.357313 -1.291846 -4.266144 1.880790849211783e-38 808464432
1.360451 -1.276335 -4.276007 1.880790849211783e-38 808464432
1.357599 -1.255201 -4.267045 1.880790849211783e-38 808464432
1.358084 -1.237184 -4.268570 1.880790849211783e-38 808464432
1.360239 -1.220653 -4.275343 1.880790849211783e-38 808464432
1.359699 -1.201680 -4.273644 1.880790849211783e-38 808464432
1.360711 -1.184073 -4.276824 1.880790849211783e-38 808464432
1.359459 -1.164500 -4.272890 1.880790849211783e-38 808464432
1.359911 -1.146397 -4.274312 1.880790849211783e-38 808464432
1.360102 -1.128065 -4.274912 1.880790849211783e-38 808464432
1.359504 -1.109084 -4.273031 1.880790849211783e-38 808464432
1.359274 -1.090415 -4.272308 1.880790849211783e-38 808464432
1.360708 -1.073064 -4.276815 1.880790849211783e-38 808464432
1.357419 -1.052014 -4.266477 1.880790849211783e-38 808464432
1.357314 -1.033478 -4.266150 1.880790849211783e-38 808464432
1.357839 -1.015416 -4.267799 1.880790849211783e-38 808464432
1.357693 -0.996846 -4.267340 1.880790849211783e-38 808464432
1.358881 -0.979242 -4.271072 1.880790849211783e-38 808464432
1.359048 -0.960884 -4.271599 1.880790849211783e-38 808464432
1.358489 -0.942018 -4.269842 1.880790849211783e-38 808464432
1.358931 -0.923847 -4.271230 1.880790849211783e-38 808464432
1.359211 -0.905557 -4.272110 1.880790849211783e-38 808464432
1.359339 -0.887159 -4.272512 1.880790849211783e-38 808464432
1.360028 -0.869117 -4.274678 1.880790849211783e-38 808464432
1.360259 -0.850770 -4.275405 1.880790849211783e-38 808464432
1.359756 -0.831968 -4.273825 1.880790849211783e-38 808464432
1.359918 -0.813576 -4.274334 1.880790849211783e-38 808464432
1.357918 -0.793917 -4.268047 1.880790849211783e-38 808464432
1.356962 -0.774907 -4.265042 1.880790849211783e-38 808464432
1.358970 -0.757576 -4.271352 1.880790849211783e-38 808464432
1.248415 -0.678972 -3.923870 1.392838965625535e-38 808464432
1.248393 -0.661986 -3.923800 1.392838965625535e-38 808464432
1.248422 -0.645027 -3.923891 1.392838965625535e-38 808464432
1.247427 -0.627552 -3.920765 1.392838965625535e-38 808464432
1.248714 -0.611221 -3.924811 1.392838965625535e-38 808464432
1.247342 -0.593590 -3.920496 1.392838965625535e-38 808464432
1.248900 -0.577350 -3.925394 1.392838965625535e-38 808464432
1.248208 -0.560059 -3.923221 1.392838965625535e-38 808464432
1.246725 -0.542442 -3.918558 1.392838965625535e-38 808464432
1.249499 -0.526660 -3.927277 1.392838965625535e-38 808464432
1.249177 -0.509540 -3.926266 1.392838965625535e-38 808464432
1.250072 -0.492908 -3.929078 1.392838965625535e-38 808464432
1.246384 -0.474507 -3.917486 1.392838965625535e-38 808464432
1.249306 -0.458633 -3.926669 1.392838965625535e-38 808464432
1.248797 -0.441467 -3.925071 1.392838965625535e-38 808464432
1.246923 -0.423850 -3.919180 1.392838965625535e-38 808464432
1.247912 -0.407219 -3.922287 1.392838965625535e-38 808464432
1.248117 -0.390316 -3.922933 1.392838965625535e-38 808464432
1.249356 -0.373716 -3.926828 1.392838965625535e-38 808464432
1.247497 -0.356198 -3.920985 1.392838965625535e-38 808464432
1.245684 -0.338743 -3.915285 1.392838965625535e-38 808464432
1.246812 -0.322098 -3.918833 1.392838965625535e-38 808464432
1.246957 -0.305181 -3.919288 1.392838965625535e-38 808464432
1.247597 -0.288374 -3.921299 1.392838965625535e-38 808464432
1.246790 -0.271235 -3.918761 1.392838965625535e-38 808464432
1.248390 -0.254609 -3.923793 1.392838965625535e-38 808464432
1.246849 -0.237342 -3.918947 1.392838965625535e-38 808464432
1.247225 -0.220456 -3.920131 1.392838965625535e-38 808464432
1.247672 -0.203570 -3.921535 1.392838965625535e-38 808464432
1.248476 -0.186726 -3.924062 1.392838965625535e-38 808464432
1.158458 -0.157512 -3.641129 1.438684266573925e-38 808464432
1.154720 -0.141303 -3.629379 1.438684266573925e-38 808464432
1.153586 -0.125480 -3.625816 1.438684266573925e-38 808464432
1.156248 -0.110048 -3.634182 1.438684266573925e-38 808464432
1.156441 -0.094343 -3.634789 1.438684266573925e-38 808464432
1.153346 -0.078408 -3.625059 1.438684266573925e-38 808464432
1.155466 -0.062842 -3.631723 1.438684266573925e-38 808464432
1.152493 -0.047010 -3.622380 1.438684266573925e-38 808464432
1.155383 -0.031419 -3.631463 1.438684266573925e-38 808464432
1.154106 -0.015692 -3.627451 1.438684266573925e-38 808464432
1.157025 0.000000 -3.636622 1.438684266573925e-38 808464432
1.154131 0.015692 -3.627527 1.438684266573925e-38 808464432
1.155039 0.031409 -3.630381 1.438684266573925e-38 808464432
1.079803 0.044045 -3.393910 1.678859116217644e-38 808464432
0.880174 0.047870 -2.766457 1.575705472493148e-39 808464432
0.881534 0.059930 -2.770731 1.575705472493148e-39 808464432
0.879967 0.071788 -2.765809 1.575705472493148e-39 808464432
0.878706 0.083632 -2.761845 1.575705472493148e-39 808464432
0.879258 0.095640 -2.763579 1.575705472493148e-39 808464432
0.878727 0.107530 -2.761911 1.575705472493148e-39 808464432
0.881545 0.119861 -2.770767 1.575705472493148e-39 808464432
0.881797 0.131885 -2.771561 1.575705472493148e-39 808464432
0.881347 0.143801 -2.770144 1.575705472493148e-39 808464432
0.878773 0.155329 -2.762054 1.575705472493148e-39 808464432
0.881200 0.167739 -2.769684 1.575705472493148e-39 808464432
0.878035 0.179075 -2.759734 1.575705472493148e-39 808464432
0.878742 0.191167 -2.761956 1.575705472493148e-39 808464432
0.878771 0.203122 -2.762048 1.575705472493148e-39 808464432
0.879573 0.215267 -2.764570 1.575705472493148e-39 808464432
0.880036 0.227346 -2.766025 1.575705472493148e-39 808464432
0.879511 0.239169 -2.764375 1.575705472493148e-39 808464432
0.880890 0.251521 -2.768709 1.575705472493148e-39 808464432
0.880818 0.263476 -2.768484 1.575705472493148e-39 808464432
0.878680 0.274784 -2.761763 1.575705472493148e-39 808464432
0.879836 0.287108 -2.765394 1.575705472493148e-39 808464432
0.878520 0.298624 -2.761259 1.575705472493148e-39 808464432
0.878093 0.310418 -2.759919 1.575705472493148e-39 808464432
1.078229 0.395829 -3.388961 1.678859116217644e-38 808464432
1.076907 0.409986 -3.384807 1.678859116217644e-38 808464432
1.078193 0.425136 -3.388849 1.678859116217644e-38 808464432
1.078292 0.439836 -3.389159 1.678859116217644e-38 808464432
1.075411 0.453283 -3.380104 1.678859116217644e-38 808464432
1.078967 0.469452 -3.391281 1.678859116217644e-38 808464432
1.078550 0.483935 -3.389971 1.678859116217644e-38 808464432
1.078642 0.498642 -3.390259 1.678859116217644e-38 808464432
1.077990 0.512998 -3.388210 1.678859116217644e-38 808464432
1.076537 0.526944 -3.383642 1.678859116217644e-38 808464432
1.078420 0.542528 -3.389560 1.678859116217644e-38 808464432
1.153731 0.596103 -3.626270 1.438684266573925e-38 808464432
1.153165 0.611489 -3.624490 1.438684266573925e-38 808464432
1.154736 0.628023 -3.629430 1.438684266573925e-38 808464432
1.155606 0.644209 -3.632164 1.438684266573925e-38 808464432
1.154880 0.659506 -3.629880 1.438684266573925e-38 808464432
1.157212 0.676572 -3.637212 1.438684266573925e-38 808464432
1.154690 0.690797 -3.629283 1.438684266573925e-38 808464432
1.155309 0.706876 -3.631229 1.438684266573925e-38 808464432
1.154577 0.722127 -3.628931 1.438684266573925e-38 808464432
1.152538 0.736522 -3.622520 1.438684266573925e-38 808464432
1.153889 0.753075 -3.626768 1.438684266573925e-38 808464432
1.246678 0.830583 -3.918409 1.392838965625535e-38 808464432
1.247630 0.848181 -3.921402 1.392838965625535e-38 808464432
1.249540 0.866469 -3.927406 1.392838965625535e-38 808464432
1.248184 0.882500 -3.923146 1.392838965625535e-38 808464432
1.248662 0.899816 -3.924646 1.392838965625535e-38 808464432
1.248422 0.916617 -3.923891 1.392838965625535e-38 808464432
1.248100 0.933351 -3.922879 1.392838965625535e-38 808464432
1.250090 0.951836 -3.929136 1.392838965625535e-38 808464432
1.245736 0.965459 -3.915449 1.392838965625535e-38 808464432
1.248800 0.984813 -3.925080 1.392838965625535e-38 808464432
1.248683 1.001698 -3.924711 1.392838965625535e-38 808464432
1.238929 1.010719 -3.894053 2.019804281157737e-38 808464432
1.215798 1.008379 -3.821350 2.019804281157737e-38 808464432
1.215536 1.024690 -3.820529 2.019804281157737e-38 808464432
1.233873 1.056924 -3.878163 2.019804281157737e-38 808464432
1.234324 1.074094 -3.879582 2.019804281157737e-38 808464432
1.232296 1.089084 -3.873207 2.019804281157737e-38 808464432
1.248440 1.120326 -3.923949 1.392838965625535e-38 808464432
1.249067 1.137872 -3.925918 1.392838965625535e-38 808464432
1.248673 1.154491 -3.924681 1.392838965625535e-38 808464432
1.234186 1.157877 -3.879146 2.019804281157737e-38 808464432
1.233088 1.173613 -3.875695 2.019804281157737e-38 808464432
1.231270 1.188624 -3.869982 2.019804281157737e-38 808464432
1.377973 -1.329982 -4.270080 1.880790849211783e-38 808464432
1.378650 -1.312155 -4.272179 1.880790849211783e-38 808464432
1.377614 -1.292701 -4.268969 1.880790849211783e-38 808464432
1.378058 -1.274645 -4.270344 1.880790849211783e-38 808464432
1.377082 -1.255282 -4.267319 1.880790849211783e-38 808464432
1.377054 -1.236797 -4.267233 1.880790849211783e-38 808464432
1.378248 -1.219393 -4.270932 1.880790849211783e-38 808464432
1.379993 -1.202438 -4.276339 1.880790849211783e-38 808464432
1.376413 -1.180867 -4.265245 1.880790849211783e-38 808464432
1.379163 -1.164739 -4.273767 1.880790849211783e-38 808464432
1.379450 -1.146490 -4.274658 1.880790849211783e-38 808464432
1.378018 -1.126827 -4.270219 1.880790849211783e-38 808464432
1.377020 -1.107552 -4.267128 1.880790849211783e-38 808464432
1.378656 -1.090386 -4.272196 1.880790849211783e-38 808464432
1.377819 -1.071254 -4.269602 1.880790849211783e-38 808464432
1.378415 -1.053240 -4.271448 1.880790849211783e-38 808464432
1.377400 -1.034001 -4.268305 1.880790849211783e-38 808464432
1.376306 -1.014729 -4.264915 1.880790849211783e-38 808464432
1.378370 -0.997774 -4.271310 1.880790849211783e-38 808464432
1.378564 -0.979435 -4.271912 1.880790849211783e-38 808464432
1.378797 -0.961117 -4.272634 1.880790849211783e-38 808464432
1.377916 -0.942031 -4.269903 1.880790849211783e-38 808464432
1.378187 -0.923742 -4.270743 1.880790849211783e-38 808464432
1.378049 -0.905176 -4.270314 1.880790849211783e-38 808464432
1.377759 -0.886517 -4.269419 1.880790849211783e-38 808464432
1.378406 -0.868455 -4.271421 1.880790849211783e-38 808464432
1.377072 -0.849155 -4.267289 1.880790849211783e-38 808464432
1.378885 -0.831789 -4.272907 1.880790849211783e-38 808464432
1.379152 -0.813462 -4.273733 1.880790849211783e-38 808464432
1.378963 -0.794866 -4.273149 1.880790849211783e-38 808464432
1.377473 -0.775541 -4.268530 1.880790849211783e-38 808464432
1.377900 -0.757311 -4.269855 1.880790849211783e-38 808464432
1.265680 -0.678666 -3.922104 1.392838965625535e-38 808464432
1.266101 -0.661920 -3.923410 1.392838965625535e-38 808464432
1.265058 -0.644416 -3.920178 1.392838965625535e-38 808464432
1.264540 -0.627201 -3.918572 1.392838965625535e-38 808464432
1.264097 -0.610036 -3.917199 1.392838965625535e-38 808464432
1.265793 -0.593886 -3.922455 1.392838965625535e-38 808464432
1.266908 -0.577426 -3.925910 1.392838965625535e-38 808464432
1.265090 -0.559639 -3.920276 1.392838965625535e-38 808464432
1.265403 -0.542814 -3.921247 1.392838965625535e-38 808464432
1.265218 -0.525774 -3.920673 1.392838965625535e-38 808464432
1.265037 -0.508741 -3.920113 1.392838965625535e-38 808464432
1.266722 -0.492438 -3.925333 1.392838965625535e-38 808464432
1.264626 -0.474671 -3.918839 1.392838965625535e-38 808464432
1.265512 -0.458039 -3.921583 1.392838965625535e-38 808464432
1.264138 -0.440596 -3.917328 1.392838965625535e-38 808464432
1.265686 -0.424168 -3.922123 1.392838965625535e-38 808464432
1.265567 -0.407164 -3.921755 1.392838965625535e-38 808464432
1.266342 -0.390437 -3.924156 1.392838965625535e-38 808464432
1.263466 -0.372614 -3.915246 1.392838965625535e-38 808464432
1.264490 -0.355965 -3.918419 1.392838965625535e-38 808464432
1.265373 -0.339251 -3.921155 1.392838965625535e-38 808464432
1.263543 -0.321822 -3.915483 1.392838965625535e-38 808464432
1.265473 -0.305350 -3.921462 1.392838965625535e-38 808464432
1.265009 -0.288280 -3.920026 1.392838965625535e-38 808464432
1.265032 -0.271328 -3.920097 1.392838965625535e-38 808464432
1.263072 -0.253976 -3.914023 1.392838965625535e-38 808464432
1.265396 -0.237480 -3.921224 1.392838965625535e-38 808464432
1.265490 -0.220534 -3.921517 1.392838965625535e-38 808464432
1.268482 -0.204051 -3.930787 1.392838965625535e-38 808464432
1.264661 -0.186483 -3.918948 1.392838965625535e-38 808464432
1.170183 -0.156865 -3.626177 1.438684266573925e-38 808464432
1.172232 -0.141426 -3.632526 1.438684266573925e-38 808464432
1.170522 -0.125528 -3.627228 1.438684266573925e-38 808464432
1.172373 -0.110011 -3.632964 1.438684266573925e-38 808464432
1.171781 -0.094248 -3.631131 1.438684266573925e-38 808464432
1.170838 -0.078476 -3.628208 1.438684266573925e-38 808464432
1.172945 -0.062894 -3.634738 1.438684266573925e-38 808464432
1.173327 -0.047186 -3.635921 1.438684266573925e-38 808464432
1.170687 -0.031387 -3.627740 1.438684266573925e-38 808464432
1.171430 -0.015703 -3.630042 1.438684266573925e-38 808464432
1.169781 0.000000 -3.624933 1.438684266573925e-38 808464432
1.170176 0.015686 -3.626156 1.438684266573925e-38 808464432
1.170523 0.031382 -3.627230 1.438684266573925e-38 808464432
1.091490 0.043895 -3.382323 1.678859116217644e-38 808464432
0.892548 0.047859 -2.765840 1.575705472493148e-39 808464432
0.892081 0.059793 -2.764392 1.575705472493148e-39 808464432
0.893689 0.071880 -2.769373 1.575705472493148e-39 808464432
0.892486 0.083748 -2.765648 1.575705472493148e-39 808464432
0.891900 0.095649 -2.763832 1.575705472493148e-39 808464432
0.893839 0.107839 -2.769838 1.575705472493148e-39 808464432
0.890633 0.119391 -2.759903 1.575705472493148e-39 808464432
0.892881 0.131662 -2.766872 1.575705472493148e-39 808464432
0.892575 0.143582 -2.765924 1.575705472493148e-39 808464432
0.892873 0.155598 -2.766845 1.575705472493148e-39 808464432
0.892607 0.167518 -2.766023 1.575705472493148e-39 808464432
0.891481 0.179257 -2.762533 1.575705472493148e-39 808464432
0.891677 0.191249 -2.763139 1.575705472493148e-39 808464432
0.891097 0.203070 -2.761344 1.575705472493148e-39 808464432
0.893442 0.215581 -2.768610 1.575705472493148e-39 808464432
0.890468 0.226801 -2.759395 1.575705472493148e-39 808464432
0.892116 0.239179 -2.764500 1.575705472493148e-39 808464432
0.893070 0.251407 -2.767456 1.575705472493148e-39 808464432
0.891068 0.262788 -2.761252 1.575705472493148e-39 808464432
0.890354 0.274513 -2.759039 1.575705472493148e-39 808464432
0.892602 0.287172 -2.766006 1.575705472493148e-39 808464432
0.894009 0.299609 -2.770365 1.575705472493148e-39 808464432
0.891100 0.310579 -2.761353 1.575705472493148e-39 808464432
1.094222 0.396042 -3.390788 1.678859116217644e-38 808464432
1.094289 0.410736 -3.390997 1.678859116217644e-38 808464432
1.091940 0.424492 -3.383718 1.678859116217644e-38 808464432
1.095528 0.440572 -3.394837 1.678859116217644e-38 808464432
1.091178 0.453450 -3.381356 1.678859116217644e-38 808464432
1.095452 0.469911 -3.394600 1.678859116217644e-38 808464432
1.092337 0.483218 -3.384947 1.678859116217644e-38 808464432
1.092868 0.498103 -3.386595 1.678859116217644e-38 808464432
1.092409 0.512538 -3.385170 1.678859116217644e-38 808464432
1.092646 0.527296 -3.385905 1.678859116217644e-38 808464432
1.093830 0.542530 -3.389574 1.678859116217644e-38 808464432
1.172863 0.597452 -3.634481 1.438684266573925e-38 808464432
1.172379 0.612922 -3.632982 1.438684266573925e-38 808464432
1.170884 0.627836 -3.628352 1.438684266573925e-38 808464432
1.174342 0.645433 -3.639065 1.438684266573925e-38 808464432
1.168864 0.658091 -3.622090 1.438684266573925e-38 808464432
1.171940 0.675533 -3.631622 1.438684266573925e-38 808464432
1.173262 0.692022 -3.635718 1.438684266573925e-38 808464432
1.172158 0.707084 -3.632298 1.438684266573925e-38 808464432
1.170639 0.721861 -3.627591 1.438684266573925e-38 808464432
1.172488 0.738718 -3.633321 1.438684266573925e-38 808464432
1.171788 0.753985 -3.631152 1.438684266573925e-38 808464432
1.265956 0.831547 -3.922959 1.392838965625535e-38 808464432
1.263732 0.847028 -3.916070 1.392838965625535e-38 808464432
1.264945 0.864797 -3.919828 1.392838965625535e-38 808464432
1.263924 0.881043 -3.916665 1.392838965625535e-38 808464432
1.263132 0.897423 -3.914210 1.392838965625535e-38 808464432
1.266781 0.916997 -3.925517 1.392838965625535e-38 808464432
1.266039 0.933431 -3.923217 1.392838965625535e-38 808464432
1.266043 0.950406 -3.923231 1.392838965625535e-38 808464432
1.264730 0.966374 -3.919161 1.392838965625535e-38 808464432
1.266160 0.984440 -3.923594 1.392838965625535e-38 808464432
1.266340 1.001555 -3.924149 1.392838965625535e-38 808464432
1.253196 1.007959 -3.883420 2.019804281157737e-38 808464432
1.233278 1.008471 -3.821698 2.019804281157737e-38 808464432
1.228707 1.021204 -3.807532 2.019804281157737e-38 808464432
1.250357 1.055959 -3.874623 2.019804281157737e-38 808464432
1.251548 1.073742 -3.878313 2.019804281157737e-38 808464432
1.250709 1.089788 -3.875713 2.019804281157737e-38 808464432
1.266025 1.120105 -3.923174 1.392838965625535e-38 808464432
1.264754 1.135935 -3.919236 1.392838965625535e-38 808464432
1.263000 1.151290 -3.913800 1.392838965625535e-38 808464432
1.250068 1.156259 -3.873726 2.019804281157737e-38 808464432
1.251554 1.174412 -3.878333 2.019804281157737e-38 808464432
1.252097 1.191705 -3.880013 2.019804281157737e-38 808464432
1.399822 -1.332305 -4.277539 1.880790849211783e-38 808464432
1.398257 -1.312332 -4.272756 1.880790849211783e-38 808464432
1.397258 -1.292924 -4.269704 1.880790849211783e-38 808464432
1.396090 -1.273388 -4.266134 1.880790849211783e-38 808464432
1.397125 -1.255864 -4.269298 1.880790849211783e-38 808464432
1.399054 -1.239104 -4.275192 1.880790849211783e-38 808464432
1.399838 -1.221294 -4.277588 1.880790849211783e-38 808464432
1.398764 -1.201867 -4.274307 1.880790849211783e-38 808464432
1.396898 -1.181798 -4.268604 1.880790849211783e-38 808464432
1.399773 -1.165726 -4.277388 1.880790849211783e-38 808464432
1.396499 -1.144539 -4.267383 1.880790849211783e-38 808464432
1.398327 -1.127553 -4.272972 1.880790849211783e-38 808464432
1.396925 -1.107957 -4.268687 1.880790849211783e-38 808464432
1.399020 -1.091124 -4.275088 1.880790849211783e-38 808464432
1.396979 -1.071066 -4.268851 1.880790849211783e-38 808464432
1.396773 -1.052444 -4.268220 1.880790849211783e-38 808464432
1.398980 -1.035614 -4.274966 1.880790849211783e-38 808464432
1.398362 -1.016671 -4.273076 1.880790849211783e-38 808464432
1.397445 -0.997532 -4.270274 1.880790849211783e-38 808464432
1.397691 -0.979231 -4.271026 1.880790849211783e-38 808464432
1.396184 -0.959719 -4.266421 1.880790849211783e-38 808464432
1.396445 -0.941439 -4.267219 1.880790849211783e-38 808464432
1.396659 -0.923121 -4.267874 1.880790849211783e-38 808464432
1.396616 -0.904631 -4.267742 1.880790849211783e-38 808464432
1.397482 -0.886719 -4.270389 1.880790849211783e-38 808464432
1.400378 -0.870045 -4.279238 1.880790849211783e-38 808464432
1.397768 -0.849946 -4.271263 1.880790849211783e-38 808464432
1.399334 -0.832400 -4.276047 1.880790849211783e-38 808464432
1.398314 -0.813309 -4.272930 1.880790849211783e-38 808464432
1.398121 -0.794715 -4.272342 1.880790849211783e-38 808464432
1.397753 -0.776029 -4.271217 1.880790849211783e-38 808464432
1.397510 -0.757421 -4.270474 1.880790849211783e-38 808464432
1.283574 -0.678702 -3.922312 1.392838965625535e-38 808464432
1.284965 -0.662452 -3.926563 1.392838965625535e-38 808464432
1.284738 -0.645352 -3.925869 1.392838965625535e-38 808464432
1.282427 -0.627238 -3.918806 1.392838965625535e-38 808464432
1.284911 -0.611468 -3.926397 1.392838965625535e-38 808464432
1.284570 -0.594325 -3.925355 1.392838965625535e-38 808464432
1.282720 -0.576513 -3.919701 1.392838965625535e-38 808464432
1.284299 -0.560245 -3.924526 1.392838965625535e-38 808464432
1.285351 -0.543713 -3.927741 1.392838965625535e-38 808464432
1.281685 -0.525220 -3.916539 1.392838965625535e-38 808464432
1.284106 -0.509237 -3.923936 1.392838965625535e-38 808464432
1.285323 -0.492729 -3.927655 1.392838965625535e-38 808464432
1.285509 -0.475808 -3.928224 1.392838965625535e-38 808464432
1.284997 -0.458632 -3.926661 1.392838965625535e-38 808464432
1.283164 -0.441015 -3.921057 1.392838965625535e-38 808464432
1.282206 -0.423737 -3.918130 1.392838965625535e-38 808464432
1.284726 -0.407587 -3.925832 1.392838965625535e-38 808464432
1.283474 -0.390223 -3.922005 1.392838965625535e-38 808464432
1.283710 -0.373326 -3.922727 1.392838965625535e-38 808464432
1.283345 -0.356255 -3.921611 1.392838965625535e-38 808464432
1.285977 -0.339986 -3.929655 1.392838965625535e-38 808464432
1.284281 -0.322561 -3.924472 1.392838965625535e-38 808464432
1.282937 -0.305264 -3.920364 1.392838965625535e-38 808464432
1.283203 -0.288365 -3.921176 1.392838965625535e-38 808464432
1.282468 -0.271247 -3.918931 1.392838965625535e-38 808464432
1.265831 -0.250995 -3.868093 1.143225810305201e-38 808464432
1.265292 -0.234162 -3.866446 1.143225810305201e-38 808464432
1.264234 -0.217255 -3.863214 1.143225810305201e-38 808464432
1.264399 -0.200569 -3.863717 1.143225810305201e-38 808464432
1.264727 -0.183903 -3.864719 1.143225810305201e-38 808464432
1.186464 -0.156839 -3.625567 1.438684266573925e-38 808464432
1.188693 -0.141420 -3.632375 1.438684266573925e-38 808464432
1.187540 -0.125585 -3.628855 1.438684266573925e-38 808464432
1.187471 -0.109880 -3.628644 1.438684266573925e-38 808464432
1.186520 -0.094108 -3.625736 1.438684266573925e-38 808464432
1.186846 -0.078445 -3.626731 1.438684266573925e-38 808464432
1.188346 -0.062835 -3.631315 1.438684266573925e-38 808464432
1.190142 -0.047197 -3.636803 1.438684266573925e-38 808464432
1.190318 -0.031470 -3.637341 1.438684266573925e-38 808464432
1.188111 -0.015706 -3.630597 1.438684266573925e-38 808464432
1.186510 0.000000 -3.625706 1.438684266573925e-38 808464432
1.185943 0.015677 -3.623972 1.438684266573925e-38 808464432
1.188710 0.031427 -3.632429 1.438684266573925e-38 808464432
1.106797 0.043892 -3.382121 1.678859116217644e-38 808464432
0.906333 0.047923 -2.769547 1.575705472493148e-39 808464432
0.906113 0.059889 -2.768875 1.575705472493148e-39 808464432
0.902840 0.071608 -2.758874 1.575705472493148e-39 808464432
0.904133 0.083662 -2.762827 1.575705472493148e-39 808464432
0.905179 0.095724 -2.766024 1.575705472493148e-39 808464432
0.904880 0.107654 -2.765107 1.575705472493148e-39 808464432
0.904788 0.119604 -2.764828 1.575705472493148e-39 808464432
0.902260 0.131197 -2.757103 1.575705472493148e-39 808464432
0.905442 0.143628 -2.766826 1.575705472493148e-39 808464432
0.903162 0.155206 -2.759857 1.575705472493148e-39 808464432
0.905891 0.167649 -2.768197 1.575705472493148e-39 808464432
0.904222 0.179294 -2.763098 1.575705472493148e-39 808464432
0.906972 0.191828 -2.771500 1.575705472493148e-39 808464432
0.903407 0.203016 -2.760607 1.575705472493148e-39 808464432
0.905576 0.215474 -2.767234 1.575705472493148e-39 808464432
0.908027 0.228061 -2.774725 1.575705472493148e-39 808464432
0.903294 0.238813 -2.760261 1.575705472493148e-39 808464432
0.905981 0.251499 -2.768472 1.575705472493148e-39 808464432
0.905093 0.263217 -2.765760 1.575705472493148e-39 808464432
0.903669 0.274749 -2.761407 1.575705472493148e-39 808464432
0.903858 0.286754 -2.761985 1.575705472493148e-39 808464432
0.905776 0.299336 -2.767848 1.575705472493148e-39 808464432
0.903761 0.310617 -2.761689 1.575705472493148e-39 808464432
1.119630 0.399610 -3.421337 1.678859116217644e-38 808464432
1.108691 0.410362 -3.387908 1.678859116217644e-38 808464432
1.107784 0.424670 -3.385136 1.678859116217644e-38 808464432
1.110098 0.440232 -3.392210 1.678859116217644e-38 808464432
1.107119 0.453685 -3.383106 1.678859116217644e-38 808464432
1.107607 0.468526 -3.384596 1.678859116217644e-38 808464432
1.108453 0.483537 -3.387180 1.678859116217644e-38 808464432
1.110739 0.499217 -3.394166 1.678859116217644e-38 808464432
1.107002 0.512171 -3.382748 1.678859116217644e-38 808464432
1.109110 0.527807 -3.389189 1.678859116217644e-38 808464432
1.106980 0.541427 -3.382681 1.678859116217644e-38 808464432
1.189428 0.597475 -3.634622 1.438684266573925e-38 808464432
1.188770 0.612859 -3.632611 1.438684266573925e-38 808464432
1.187256 0.627773 -3.627987 1.438684266573925e-38 808464432
1.187217 0.643446 -3.627866 1.438684266573925e-38 808464432
1.188381 0.659787 -3.631424 1.438684266573925e-38 808464432
1.188002 0.675280 -3.630266 1.438684266573925e-38 808464432
1.186612 0.690176 -3.626017 1.438684266573925e-38 808464432
1.188266 0.706845 -3.631070 1.438684266573925e-38 808464432
1.188495 0.722693 -3.631772 1.438684266573925e-38 808464432
1.187466 0.737764 -3.628627 1.438684266573925e-38 808464432
1.186781 0.753026 -3.626533 1.438684266573925e-38 808464432
1.263505 0.818411 -3.860985 1.143225810305201e-38 808464432
1.265520 0.836445 -3.867144 1.143225810305201e-38 808464432
1.280134 0.863026 -3.911800 1.392838965625535e-38 808464432
1.284201 0.882744 -3.924228 1.392838965625535e-38 808464432
1.284455 0.899898 -3.925003 1.392838965625535e-38 808464432
1.282010 0.915131 -3.917531 1.392838965625535e-38 808464432
1.283553 0.933200 -3.922246 1.392838965625535e-38 808464432
1.283954 0.950464 -3.923472 1.392838965625535e-38 808464432
1.283656 0.967212 -3.922561 1.392838965625535e-38 808464432
1.283270 0.983885 -3.921383 1.392838965625535e-38 808464432
1.282801 1.000483 -3.919950 1.392838965625535e-38 808464432
1.271228 1.008261 -3.884586 2.019804281157737e-38 808464432
1.251687 1.009308 -3.824871 2.019804281157737e-38 808464432
1.242713 1.018499 -3.797448 2.019804281157737e-38 808464432
1.270270 1.057876 -3.881657 2.019804281157737e-38 808464432
1.270301 1.074694 -3.881752 2.019804281157737e-38 808464432
1.270204 1.091403 -3.881455 2.019804281157737e-38 808464432
1.267937 1.106216 -3.874528 2.019804281157737e-38 808464432
1.271006 1.125695 -3.883905 2.019804281157737e-38 808464432
1.270143 1.141721 -3.881269 2.019804281157737e-38 808464432
1.269373 1.157808 -3.878917 2.019804281157737e-38 808464432
1.268560 1.173836 -3.876430 2.019804281157737e-38 808464432
1.270576 1.192497 -3.882592 2.019804281157737e-38 808464432
1.417977 -1.331097 -4.273659 1.880790849211783e-38 808464432
1.416794 -1.311515 -4.270096 1.880790849211783e-38 808464432
1.416727 -1.292981 -4.269893 1.880790849211783e-38 808464432
1.417265 -1.274994 -4.271514 1.880790849211783e-38 808464432
1.417282 -1.256530 -4.271564 1.880790849211783e-38 808464432
1.418338 -1.238975 -4.274748 1.880790849211783e-38 808464432
1.418694 -1.220789 -4.275823 1.880790849211783e-38 808464432
1.416288 -1.200254 -4.268571 1.880790849211783e-38 808464432
1.415981 -1.181532 -4.267643 1.880790849211783e-38 808464432
1.416192 -1.163244 -4.268280 1.880790849211783e-38 808464432
1.416526 -1.145049 -4.269287 1.880790849211783e-38 808464432
1.418029 -1.127776 -4.273817 1.880790849211783e-38 808464432
1.416624 -1.108189 -4.269582 1.880790849211783e-38 808464432
1.417747 -1.090583 -4.272967 1.880790849211783e-38 808464432
1.417874 -1.072195 -4.273350 1.880790849211783e-38 808464432
1.419505 -1.054921 -4.278265 1.880790849211783e-38 808464432
1.416141 -1.033957 -4.268127 1.880790849211783e-38 808464432
1.416804 -1.015969 -4.270123 1.880790849211783e-38 808464432
1.419334 -0.999278 -4.277750 1.880790849211783e-38 808464432
1.416501 -0.978816 -4.269213 1.880790849211783e-38 808464432
1.416670 -0.960462 -4.269721 1.880790849211783e-38 808464432
1.415925 -0.941496 -4.267475 1.880790849211783e-38 808464432
1.416892 -0.923666 -4.270390 1.880790849211783e-38 808464432
1.417711 -0.905716 -4.272860 1.880790849211783e-38 808464432
1.417220 -0.886924 -4.271380 1.880790849211783e-38 808464432
1.417019 -0.868323 -4.270772 1.880790849211783e-38 808464432
1.418596 -0.850794 -4.275527 1.880790849211783e-38 808464432
1.417704 -0.831775 -4.272837 1.880790849211783e-38 808464432
1.416839 -0.812795 -4.270230 1.880790849211783e-38 808464432
1.416377 -0.794064 -4.268838 1.880790849211783e-38 808464432
1.416709 -0.775779 -4.269839 1.880790849211783e-38 808464432
1.419094 -0.758583 -4.277026 1.880790849211783e-38 808464432
1.301938 -0.678982 -3.923930 1.392838965625535e-38 808464432
1.302085 -0.662082 -3.924372 1.392838965625535e-38 808464432
1.299137 -0.643645 -3.915488 1.392838965625535e-38 808464432
1.302158 -0.628165 -3.924593 1.392838965625535e-38 808464432
1.299611 -0.609992 -3.916917 1.392838965625535e-38 808464432
1.300207 -0.593319 -3.918711 1.392838965625535e-38 808464432
1.301330 -0.576865 -3.922096 1.392838965625535e-38 808464432
1.301665 -0.560043 -3.923106 1.392838965625535e-38 808464432
1.300372 -0.542532 -3.919208 1.392838965625535e-38 808464432
1.300090 -0.525464 -3.918359 1.392838965625535e-38 808464432
1.302273 -0.509368 -3.924939 1.392838965625535e-38 808464432
1.300294 -0.491641 -3.918975 1.392838965625535e-38 808464432
1.301464 -0.475114 -3.922499 1.392838965625535e-38 808464432
1.301473 -0.458149 -3.922529 1.392838965625535e-38 808464432
1.301922 -0.441333 -3.923881 1.392838965625535e-38 808464432
1.301562 -0.424241 -3.922796 1.392838965625535e-38 808464432
1.302331 -0.407512 -3.925113 1.392838965625535e-38 808464432
1.300789 -0.390070 -3.920466 1.392838965625535e-38 808464432
1.301853 -0.373416 -3.923673 1.392838965625535e-38 808464432
1.301387 -0.356315 -3.922269 1.392838965625535e-38 808464432
1.303319 -0.339851 -3.928092 1.392838965625535e-38 808464432
1.300350 -0.322123 -3.919143 1.392838965625535e-38 808464432
1.298934 -0.304837 -3.914874 1.392838965625535e-38 808464432
1.302028 -0.288587 -3.924201 1.392838965625535e-38 808464432
1.300727 -0.271340 -3.920278 1.392838965625535e-38 808464432
1.270195 -0.248410 -3.828258 1.143225810305201e-38 808464432
1.272070 -0.232192 -3.833908 1.143225810305201e-38 808464432
1.270539 -0.215347 -3.829296 1.143225810305201e-38 808464432
1.270395 -0.198760 -3.828861 1.143225810305201e-38 808464432
1.269892 -0.182124 -3.827346 1.143225810305201e-38 808464432
1.202771 -0.156816 -3.625048 1.438684266573925e-38 808464432
1.206744 -0.141601 -3.637021 1.438684266573925e-38 808464432
1.203524 -0.125532 -3.627319 1.438684266573925e-38 808464432
1.204154 -0.109898 -3.629216 1.438684266573925e-38 808464432
1.206244 -0.094361 -3.635516 1.438684266573925e-38 808464432
1.205736 -0.078601 -3.633985 1.438684266573925e-38 808464432
1.204293 -0.062806 -3.629634 1.438684266573925e-38 808464432
1.201849 -0.047009 -3.622271 1.438684266573925e-38 808464432
1.204384 -0.031405 -3.629909 1.438684266573925e-38 808464432
1.204987 -0.015711 -3.631726 1.438684266573925e-38 808464432
1.203841 0.000000 -3.628272 1.438684266573925e-38 808464432
1.205887 0.015722 -3.634440 1.438684266573925e-38 808464432
1.205483 0.031434 -3.633222 1.438684266573925e-38 808464432
1.123839 0.043958 -3.387155 1.678859116217644e-38 808464432
0.917908 0.047870 -2.766497 1.575705472493148e-39 808464432
0.919733 0.059957 -2.771997 1.575705472493148e-39 808464432
0.918634 0.071862 -2.768683 1.575705472493148e-39 808464432
0.918993 0.083872 -2.769765 1.575705472493148e-39 808464432
0.919153 0.095871 -2.770248 1.575705472493148e-39 808464432
0.917798 0.107695 -2.766163 1.575705472493148e-39 808464432
0.916168 0.119449 -2.761250 1.575705472493148e-39 808464432
0.918373 0.131710 -2.767898 1.575705472493148e-39 808464432
0.916168 0.143339 -2.761252 1.575705472493148e-39 808464432
0.917225 0.155463 -2.764436 1.575705472493148e-39 808464432
0.918831 0.167715 -2.769279 1.575705472493148e-39 808464432
0.915964 0.179134 -2.760637 1.575705472493148e-39 808464432
0.917882 0.191476 -2.766418 1.575705472493148e-39 808464432
0.918097 0.203491 -2.767065 1.575705472493148e-39 808464432
0.915553 0.214864 -2.759399 1.575705472493148e-39 808464432
0.918438 0.227516 -2.768095 1.575705472493148e-39 808464432
0.918799 0.239584 -2.769180 1.575705472493148e-39 808464432
0.917248 0.251139 -2.764506 1.575705472493148e-39 808464432
0.916088 0.262765 -2.761011 1.575705472493148e-39 808464432
0.917177 0.275036 -2.764291 1.575705472493148e-39 808464432
0.919301 0.287658 -2.770694 1.575705472493148e-39 808464432
0.919446 0.299692 -2.771132 1.575705472493148e-39 808464432
0.918896 0.311493 -2.769474 1.575705472493148e-39 808464432
1.144065 0.402738 -3.448115 1.678859116217644e-38 808464432
1.136066 0.414734 -3.424005 1.678859116217644e-38 808464432
1.124252 0.425079 -3.388400 1.678859116217644e-38 808464432
1.125870 0.440370 -3.393275 1.678859116217644e-38 808464432
1.123959 0.454276 -3.387514 1.678859116217644e-38 808464432
1.123868 0.468893 -3.387242 1.678859116217644e-38 808464432
1.125614 0.484297 -3.392504 1.678859116217644e-38 808464432
1.124389 0.498429 -3.388812 1.678859116217644e-38 808464432
1.124060 0.512939 -3.387821 1.678859116217644e-38 808464432
1.124673 0.527882 -3.389666 1.678859116217644e-38 808464432
1.122532 0.541512 -3.383215 1.678859116217644e-38 808464432
1.205734 0.597370 -3.633979 1.438684266573925e-38 808464432
1.205978 0.613214 -3.634713 1.438684266573925e-38 808464432
1.204665 0.628252 -3.630755 1.438684266573925e-38 808464432
1.204288 0.643757 -3.629619 1.438684266573925e-38 808464432
1.206818 0.660844 -3.637247 1.438684266573925e-38 808464432
1.201815 0.673774 -3.622167 1.438684266573925e-38 808464432
1.204035 0.690717 -3.628858 1.438684266573925e-38 808464432
1.204063 0.706431 -3.628942 1.438684266573925e-38 808464432
1.205283 0.722861 -3.632620 1.438684266573925e-38 808464432
1.204438 0.738057 -3.630071 1.438684266573925e-38 808464432
1.203477 0.753159 -3.627175 1.438684266573925e-38 808464432
1.271230 0.812135 -3.831378 1.143225810305201e-38 808464432
1.271450 0.828852 -3.832040 1.143225810305201e-38 808464432
1.270284 0.844655 -3.828527 1.143225810305201e-38 808464432
1.301097 0.882107 -3.921395 1.392838965625535e-38 808464432
1.301786 0.899546 -3.923470 1.392838965625535e-38 808464432
1.302798 0.917231 -3.926522 1.392838965625535e-38 808464432
1.301144 0.933031 -3.921535 1.392838965625535e-38 808464432
1.301770 0.950452 -3.923422 1.392838965625535e-38 808464432
1.303063 0.968386 -3.927320 1.392838965625535e-38 808464432
1.301260 0.984012 -3.921886 1.392838965625535e-38 808464432
1.301326 1.001028 -3.922085 1.392838965625535e-38 808464432
1.291030 1.009940 -3.891053 2.019804281157737e-38 808464432
1.268769 1.009068 -3.823959 2.019804281157737e-38 808464432
1.254584 1.014144 -3.781209 2.019804281157737e-38 808464432
1.287506 1.057543 -3.880433 2.019804281157737e-38 808464432
1.288605 1.075246 -3.883745 2.019804281157737e-38 808464432
1.283793 1.087969 -3.869243 2.019804281157737e-38 808464432
1.288200 1.108499 -3.882524 2.019804281157737e-38 808464432
1.282927 1.120688 -3.866631 2.019804281157737e-38 808464432
1.287119 1.141131 -3.879266 2.019804281157737e-38 808464432
1.287962 1.158671 -3.881808 2.019804281157737e-38 808464432
1.285179 1.172923 -3.873419 2.019804281157737e-38 808464432
1.287224 1.191573 -3.879582 2.019804281157737e-38 808464432
